ncols	75
nrows	75
xllcorner	4610588
yllcorner	5628103
cellsize	40
nodata_value	-9999
574 581 586 589 591 593 594 595 595 595 595 595 594 592 592 595 598 601 605 608 610 612 615 616 618 619 619 619 621 623 625 627 629 631 633 633 632 630 626 623 619 615 611 606 605 609 613 621 628 630 630 630 632 633 634 635 634 631 627 623 620 617 605 590 579 571 564 556 549 542 535 530 533 548 564
579 587 591 593 595 596 597 598 598 598 598 597 596 594 593 596 599 603 606 609 612 614 617 618 620 621 621 621 622 624 626 628 631 632 634 635 634 631 628 625 621 616 612 608 607 610 615 622 630 633 633 633 635 636 637 637 636 633 630 628 628 625 611 595 584 576 567 560 551 544 538 532 530 544 559
584 592 596 597 598 598 599 600 600 600 600 600 599 597 595 597 601 604 608 611 613 616 618 620 622 622 623 623 624 625 627 630 631 633 635 636 635 633 630 625 622 617 613 609 609 612 616 622 631 634 636 636 637 639 639 639 637 635 633 631 629 628 616 603 589 579 570 562 554 547 541 536 530 539 552
581 591 599 601 600 600 601 602 603 603 603 602 602 600 597 599 602 605 608 612 615 618 620 622 624 625 626 626 626 627 628 630 632 634 636 637 636 634 630 627 623 619 615 612 610 613 617 623 629 635 638 639 640 642 642 641 640 637 635 632 630 627 616 602 592 581 572 565 557 550 544 537 533 533 546
577 584 592 596 599 601 602 603 604 605 605 604 603 602 600 601 604 607 610 614 617 620 622 624 626 627 628 628 629 629 630 631 633 635 636 636 636 634 631 628 624 620 616 614 613 615 619 624 630 634 638 641 643 645 644 643 641 638 635 632 630 624 613 602 593 585 576 568 560 553 546 540 535 532 542
573 580 586 591 595 599 603 604 605 606 607 606 605 604 602 604 606 609 612 615 618 621 624 626 628 629 630 631 631 631 632 633 634 635 636 637 637 635 632 629 626 622 619 617 616 617 620 625 630 634 639 642 645 645 645 645 641 637 633 629 624 619 612 604 597 588 579 571 563 556 549 543 536 532 536
568 575 582 588 594 599 603 605 606 607 608 608 607 605 605 606 608 612 614 617 620 623 626 628 630 631 633 633 633 634 634 634 635 636 637 637 637 636 634 632 629 626 623 620 618 620 623 626 630 634 638 642 646 647 647 645 641 637 632 627 622 617 611 605 597 589 581 573 566 560 553 545 536 532 532
565 571 581 588 593 598 602 605 607 608 609 609 608 607 608 609 611 613 616 619 622 625 628 630 632 633 635 635 635 636 637 637 637 638 638 638 638 638 636 634 632 630 627 623 621 622 625 628 631 635 639 643 647 649 649 646 642 637 632 627 622 617 611 604 597 590 583 577 573 565 557 547 535 533 532
564 569 579 587 593 597 601 605 608 609 610 610 610 609 610 611 613 615 617 620 623 627 629 631 633 636 637 638 638 639 639 639 639 639 640 640 640 639 639 637 635 633 630 627 624 624 627 630 633 636 640 644 649 650 650 646 642 637 633 628 623 618 612 604 597 592 586 584 578 569 559 549 535 533 533
564 567 576 585 592 596 600 604 607 608 610 610 610 610 611 613 614 616 618 621 625 628 630 633 635 637 638 640 641 641 641 641 641 641 641 642 642 642 641 640 638 636 633 630 627 628 629 632 634 637 641 646 650 650 649 646 642 637 632 627 624 618 611 605 600 597 593 589 581 571 562 551 536 533 534
565 567 573 583 589 594 598 601 603 604 606 607 609 610 611 613 614 617 619 622 626 628 631 634 636 639 640 642 643 643 643 643 643 643 643 644 643 644 643 642 640 639 636 633 630 631 632 634 636 639 643 647 650 650 649 645 641 637 633 629 623 618 611 608 607 604 599 593 585 575 564 552 539 535 534
566 567 573 581 587 591 595 597 598 599 602 604 606 608 610 612 614 617 619 623 626 629 632 635 637 640 642 644 645 645 645 645 645 645 645 645 646 646 645 645 643 641 638 635 634 635 636 637 639 641 645 648 650 650 649 645 641 637 632 627 623 618 615 614 613 610 604 598 588 577 566 553 540 536 535
567 567 573 580 586 588 590 591 594 596 600 603 605 606 609 611 614 616 619 623 626 629 632 635 638 641 643 645 646 647 648 647 646 646 646 647 647 648 648 647 646 644 642 639 639 639 640 641 642 644 647 649 650 650 649 645 641 637 632 627 623 621 620 619 618 615 609 602 592 579 567 555 542 537 536
568 568 573 581 584 585 586 590 596 601 604 606 608 609 609 611 613 616 619 622 626 629 632 635 638 641 644 646 647 648 648 647 646 647 647 649 649 649 649 649 648 647 645 643 643 644 644 644 645 646 649 652 651 650 649 645 641 637 632 628 626 625 624 623 622 618 612 605 596 583 571 559 546 537 536
569 569 572 578 581 581 583 589 598 604 608 610 611 610 610 611 613 616 618 622 625 628 631 635 638 641 644 646 648 649 649 648 647 647 649 649 650 651 651 651 650 649 648 647 647 647 648 649 649 649 651 653 654 652 648 645 641 638 635 633 631 630 629 627 624 620 614 607 600 588 575 563 551 539 536
570 570 571 574 577 578 582 588 594 602 608 611 612 611 610 611 612 615 617 621 624 627 630 633 636 640 643 646 648 650 649 648 647 647 648 649 650 650 651 651 651 651 651 651 651 652 652 652 653 652 653 654 655 653 650 647 644 643 641 639 637 636 634 632 630 626 618 611 604 592 580 568 556 544 538
572 571 572 575 578 580 581 585 590 596 604 609 611 610 609 609 611 613 615 618 622 626 629 632 635 638 641 644 647 647 647 646 646 646 646 647 648 649 650 651 652 652 653 654 654 655 656 656 655 656 656 656 656 655 653 651 650 648 646 644 643 641 639 637 635 632 625 617 608 597 583 572 561 549 540
574 573 574 577 583 585 586 587 587 591 596 602 606 606 605 606 608 611 613 616 620 624 627 630 633 635 638 641 643 644 644 643 643 643 644 645 647 648 650 652 653 654 655 656 657 658 659 659 659 659 659 660 659 658 657 656 655 652 650 649 648 646 644 642 640 637 631 621 611 599 587 576 565 554 545
576 574 574 579 588 590 592 592 591 591 591 596 599 601 602 604 606 609 612 615 618 622 625 628 631 634 636 638 640 640 641 640 640 640 641 643 645 647 649 651 653 655 656 657 659 660 661 662 663 663 663 663 662 661 661 660 659 657 656 654 652 651 649 648 645 640 633 624 614 602 590 577 567 558 550
577 575 576 584 593 596 598 598 597 597 597 597 598 599 600 603 605 609 612 614 618 621 624 627 629 631 633 635 636 637 637 637 637 638 639 641 643 646 649 651 653 655 657 658 660 662 664 665 666 666 666 666 666 665 665 664 664 662 661 659 657 656 655 653 648 642 636 626 616 604 591 578 569 561 555
578 576 577 587 595 601 603 604 604 603 602 602 602 603 603 603 605 608 610 613 617 620 623 625 627 629 630 632 632 633 633 633 634 635 637 640 642 645 648 651 653 655 657 659 661 664 665 667 668 669 670 670 670 669 668 668 668 668 666 664 663 662 660 657 652 646 637 628 615 603 592 581 572 564 559
579 577 579 588 595 604 609 611 611 610 608 607 606 606 606 607 607 607 610 613 616 619 621 623 625 627 628 628 629 629 630 630 631 633 636 639 642 644 647 650 653 655 657 659 663 665 667 669 670 672 673 674 674 673 673 673 673 673 671 670 669 668 666 662 656 650 640 627 615 603 594 585 576 569 563
582 578 579 586 596 607 614 616 616 615 614 612 610 609 609 610 610 611 612 614 616 618 620 622 623 624 624 625 625 625 626 626 629 633 636 639 641 644 647 650 653 655 658 660 663 666 668 669 671 674 676 677 678 678 678 678 678 678 678 679 677 675 671 666 660 651 640 629 616 605 595 588 580 574 569
585 580 580 587 598 609 618 621 621 620 618 616 614 613 612 613 613 614 615 616 618 619 619 621 621 621 621 622 622 623 622 625 629 633 636 639 642 645 647 649 652 654 657 660 663 666 668 669 672 675 678 680 681 681 682 682 684 685 686 686 683 679 675 669 663 653 641 631 618 607 599 593 586 580 575
587 582 581 588 601 611 621 626 628 626 623 619 617 615 616 616 617 617 617 618 619 619 619 619 619 618 618 619 619 619 621 625 630 633 635 638 640 643 645 647 650 653 656 659 661 665 667 669 672 675 679 681 683 685 685 687 689 690 690 689 686 682 678 672 665 655 644 634 622 611 604 598 593 587 581
589 584 581 587 600 614 624 631 633 632 629 623 619 618 618 620 620 620 619 619 619 620 619 617 616 615 615 616 615 617 621 625 628 632 634 636 638 641 643 645 648 651 654 656 660 663 665 667 670 672 677 681 683 686 688 690 692 693 692 689 686 682 677 671 665 657 648 638 626 616 611 606 600 593 586
591 586 583 585 599 613 623 632 634 633 630 624 618 617 619 620 621 621 620 620 619 619 618 616 613 612 612 613 614 617 621 624 627 630 632 634 636 639 641 643 646 649 652 654 657 660 662 664 666 670 675 678 682 685 689 691 692 693 691 688 685 681 676 671 665 658 649 641 631 624 620 614 606 599 592
593 588 583 585 595 609 620 628 629 629 626 620 615 613 615 618 618 620 620 620 619 619 616 613 610 609 609 611 613 616 620 623 625 627 629 631 632 635 637 640 644 647 649 651 653 656 658 661 663 667 671 675 679 683 687 691 692 692 690 687 684 680 676 671 665 658 651 643 637 633 627 621 613 605 596
596 591 585 585 590 603 614 620 622 622 619 614 609 607 609 611 613 614 615 615 616 615 612 608 606 607 608 609 612 615 619 622 624 625 626 627 629 632 635 637 641 643 645 648 650 653 655 658 661 665 668 672 677 682 687 690 691 691 689 687 684 680 676 672 666 660 654 648 644 639 635 627 618 609 601
597 594 588 586 587 594 604 609 611 612 611 608 604 602 602 603 604 605 607 607 608 605 603 604 604 606 607 608 611 613 617 621 622 622 623 624 626 629 631 634 637 639 642 644 647 649 652 656 660 664 667 670 675 681 686 689 691 690 688 686 684 680 677 673 667 662 659 655 652 648 643 633 624 615 607
600 597 592 587 587 589 594 598 600 601 601 600 598 597 596 597 599 599 599 600 601 602 604 605 604 605 606 608 609 611 614 618 619 619 620 621 623 625 627 630 633 636 638 641 644 647 650 653 658 662 666 670 674 679 685 689 690 689 687 685 683 680 678 674 669 667 666 664 662 661 652 640 629 620 611
604 601 597 593 590 588 589 591 593 593 593 594 595 595 596 597 598 599 600 601 603 606 608 609 608 607 606 607 608 609 611 613 615 616 617 619 622 623 626 629 632 634 635 638 641 645 649 653 658 662 666 670 674 678 683 687 688 687 686 684 682 681 678 674 673 674 675 678 680 676 659 645 632 622 613
608 606 603 599 596 592 590 590 591 593 595 595 594 596 598 602 602 603 604 605 608 610 611 613 612 612 610 609 610 610 610 611 612 614 617 619 623 627 630 633 636 638 639 641 644 646 650 653 657 662 665 669 673 676 681 685 686 685 684 683 682 681 678 675 678 680 682 684 685 681 667 650 631 621 613
613 610 608 606 604 600 598 597 597 598 599 599 597 597 600 606 610 611 610 611 613 614 616 617 616 616 614 613 613 613 612 612 612 614 617 621 624 629 633 636 639 641 643 645 647 649 651 654 658 662 665 669 673 676 679 682 684 683 683 683 683 682 680 679 681 683 685 685 682 674 665 649 631 621 612
617 615 613 611 610 608 607 606 605 605 604 604 601 599 600 604 609 615 616 617 619 619 620 621 620 620 619 618 617 616 615 615 614 614 617 620 625 628 633 638 642 645 647 649 650 652 654 657 660 663 667 670 673 676 678 681 682 683 684 684 684 684 682 681 681 682 682 680 673 665 657 643 630 621 612
621 620 617 616 615 614 613 613 612 611 609 607 604 600 601 602 606 613 621 624 626 626 625 625 624 625 623 621 621 620 619 619 618 616 616 620 624 628 632 640 645 648 651 652 653 654 656 659 662 665 668 671 675 678 681 682 683 684 684 685 685 685 684 682 681 679 676 671 664 656 647 637 627 620 612
624 624 621 620 620 619 619 618 617 615 612 610 607 602 600 603 605 610 618 624 628 632 633 630 628 628 627 626 623 623 621 621 621 618 617 619 623 629 633 640 647 650 653 654 656 657 659 661 663 666 670 674 678 683 685 684 684 685 685 686 686 686 685 684 681 677 672 666 657 649 642 635 628 622 615
626 626 625 624 624 623 623 622 620 618 615 612 609 603 603 604 605 607 613 619 626 633 638 636 634 632 630 629 628 626 625 624 623 620 618 619 623 629 633 640 648 652 654 657 658 659 660 662 665 668 671 676 682 686 686 685 685 685 686 687 687 688 688 686 681 675 669 663 655 647 639 633 627 622 615
628 628 628 628 627 627 627 626 625 621 617 614 609 604 607 609 607 607 609 615 621 627 633 638 639 637 633 632 631 629 627 627 625 623 620 619 622 628 634 640 647 652 655 658 659 660 661 663 666 669 673 679 683 686 685 685 685 686 686 688 689 690 690 687 681 674 667 661 654 646 639 633 627 620 613
629 630 631 631 631 630 630 629 627 624 620 615 608 606 613 614 613 612 610 612 616 621 627 633 638 640 638 635 634 632 630 629 628 625 622 620 622 627 634 639 645 650 654 657 659 660 660 663 665 669 673 678 683 684 684 684 685 686 687 688 691 693 693 687 681 673 666 660 653 645 638 632 626 620 613
630 632 633 633 634 633 632 631 628 626 622 616 609 609 617 619 619 619 618 614 614 618 622 627 633 639 641 639 637 636 634 632 630 628 624 621 622 627 633 639 643 647 650 654 657 658 659 662 664 668 673 678 682 683 682 682 684 685 687 689 692 695 695 690 682 673 665 659 652 644 637 632 627 622 616
631 633 635 636 636 636 635 632 630 626 622 616 610 613 620 623 624 624 623 622 619 619 620 624 629 636 641 641 640 639 637 635 633 630 627 624 623 625 633 638 641 644 647 650 653 655 657 659 663 666 672 677 679 680 679 680 682 685 686 689 692 696 694 689 682 674 667 658 651 644 639 634 629 623 617
633 635 637 638 639 638 636 634 631 627 622 616 612 618 626 631 630 628 628 626 626 625 623 623 627 634 641 644 643 642 640 637 635 634 630 627 624 624 629 635 638 641 643 647 650 652 655 658 660 663 669 675 676 675 675 678 681 684 686 688 691 693 691 686 682 676 667 659 653 648 642 637 632 626 620
635 638 639 641 642 640 638 635 632 627 623 618 613 621 630 637 638 635 633 631 630 630 629 624 626 632 641 646 646 644 642 640 637 636 632 629 627 625 626 630 635 638 640 643 647 649 652 655 659 661 665 670 671 670 673 677 680 683 686 688 690 690 690 688 684 677 669 662 657 653 647 641 636 630 624
638 640 643 644 644 643 641 638 634 629 624 618 615 622 631 638 643 641 638 636 634 634 633 628 627 631 639 646 648 647 645 642 639 637 636 632 629 628 627 627 631 635 637 640 644 647 650 653 656 659 662 665 667 670 674 678 681 683 686 689 690 691 690 690 685 680 674 669 664 658 651 645 639 634 629
641 644 646 648 647 646 643 641 637 632 626 621 616 620 629 636 642 644 641 639 638 637 636 633 628 631 637 645 648 650 647 645 642 640 637 634 632 631 630 629 630 633 635 638 642 645 647 651 654 658 662 665 669 674 677 681 683 685 688 690 692 693 692 690 688 684 680 676 672 664 655 648 643 638 634
644 647 650 650 650 648 646 643 640 635 630 625 619 619 625 631 638 642 643 641 641 641 639 636 632 630 634 640 646 649 649 647 644 642 639 637 635 634 633 632 630 631 634 637 640 643 646 650 654 658 663 668 672 677 680 683 686 688 690 692 693 694 695 694 692 689 686 683 676 666 657 651 647 641 637
648 650 651 653 652 650 648 646 643 638 633 628 624 621 622 628 634 638 641 643 643 643 642 640 636 632 633 637 642 647 650 649 646 644 642 639 638 637 636 634 633 633 634 637 639 643 647 650 655 659 664 669 674 680 685 688 690 691 693 694 696 697 698 699 698 697 695 691 680 668 659 655 650 645 640
650 652 654 655 655 654 652 649 647 642 637 633 629 625 622 626 631 636 640 642 645 646 645 643 640 636 634 635 639 644 650 650 648 646 644 642 641 639 639 637 636 636 636 637 640 644 647 651 655 659 664 670 676 685 692 694 694 695 696 697 699 701 702 704 704 705 703 698 685 674 665 658 653 648 644
652 654 656 657 657 657 655 653 650 646 641 636 632 628 624 626 631 635 639 642 645 648 648 646 644 641 637 636 638 640 645 649 649 647 646 645 643 642 640 639 639 638 638 638 640 644 647 651 655 659 664 670 680 690 697 698 697 697 699 700 702 704 707 710 710 711 707 702 693 681 671 662 656 652 648
655 657 658 660 660 659 658 656 653 649 644 639 635 631 627 626 630 635 639 643 645 648 650 649 647 645 642 640 638 639 642 645 648 648 648 647 646 644 642 641 642 641 640 640 641 644 648 651 655 659 663 669 678 688 695 697 698 699 701 703 705 708 711 714 716 715 711 705 697 687 677 668 662 657 652
658 659 660 662 663 662 660 658 655 652 648 643 638 634 630 627 633 637 640 643 646 649 651 651 650 649 647 645 642 641 641 643 646 649 649 649 648 647 644 644 645 644 643 643 643 644 647 651 654 658 662 667 675 684 691 694 696 698 701 705 708 711 715 718 720 718 713 706 698 691 683 676 668 660 654
660 661 663 664 665 665 663 661 658 654 650 646 640 636 632 628 634 640 643 645 647 650 652 653 653 653 651 649 647 645 643 643 645 649 651 651 650 649 648 647 648 649 648 646 646 646 647 650 653 657 661 666 671 679 686 690 693 697 701 705 710 714 718 721 721 717 713 706 700 695 689 683 672 661 654
663 664 665 666 667 667 666 664 661 657 653 648 643 638 634 630 636 641 644 646 648 650 653 654 655 655 655 654 651 648 647 645 645 648 651 653 652 651 649 650 651 652 652 651 650 649 648 650 652 657 660 665 669 675 681 687 690 695 699 704 710 716 720 721 719 715 711 705 701 697 692 686 672 662 653
665 666 667 668 669 669 668 666 664 660 656 650 645 640 636 632 636 642 645 648 650 652 654 656 657 658 658 657 654 651 650 648 647 647 651 654 654 653 651 652 654 655 656 655 654 654 652 651 652 655 659 663 668 672 677 683 688 693 698 703 709 717 720 719 716 712 708 704 700 696 693 685 672 664 655
666 667 668 669 669 670 670 669 667 663 658 652 647 642 638 634 635 641 645 649 651 653 655 657 659 660 660 659 657 655 653 652 649 648 651 654 655 655 654 655 657 657 659 659 659 658 657 656 655 655 658 662 666 671 675 681 687 691 697 702 709 717 720 718 715 710 706 702 698 694 689 682 674 665 656
667 667 668 668 669 670 671 671 669 666 661 655 650 643 640 636 636 640 645 649 651 654 656 658 660 662 662 662 660 658 656 655 652 650 650 654 656 657 657 658 660 661 662 663 663 663 662 661 659 659 659 662 665 669 674 679 685 690 696 701 710 716 718 717 713 708 704 699 696 691 686 680 673 664 656
666 666 667 667 668 669 670 670 670 667 664 659 654 647 643 639 637 639 644 648 651 654 657 660 662 663 664 663 663 661 659 657 655 653 651 653 656 658 660 661 663 664 665 666 668 667 667 666 664 663 662 662 665 669 674 678 684 690 695 702 709 713 715 714 710 706 701 697 693 689 684 678 671 664 655
664 664 664 665 666 666 667 669 670 668 666 662 657 650 646 642 641 641 643 646 651 655 658 661 663 665 666 665 665 664 662 660 658 656 653 654 657 660 661 663 665 667 669 670 671 671 671 670 668 668 668 667 667 670 674 679 683 689 695 701 707 710 712 711 707 703 699 695 691 688 683 678 672 662 654
659 660 661 662 663 665 666 667 669 670 668 665 660 655 650 646 644 646 645 647 652 656 659 662 665 666 667 668 667 666 664 662 660 658 655 655 658 661 663 665 667 669 671 673 674 675 674 674 674 673 673 672 672 674 675 679 684 688 694 698 703 706 708 707 704 701 697 694 692 688 684 680 672 661 654
654 656 657 659 661 662 664 666 668 670 669 667 664 659 654 650 650 650 649 648 653 658 661 664 666 669 670 670 669 667 666 664 662 659 657 657 659 662 664 667 669 671 673 675 677 678 678 678 677 677 677 676 677 678 679 682 685 688 692 696 700 702 703 703 701 699 696 694 691 688 685 681 674 661 651
650 652 654 656 658 661 663 665 667 669 670 669 667 664 660 656 656 655 654 653 655 660 663 666 669 671 672 672 671 669 667 665 663 661 658 659 661 664 666 669 671 673 675 677 679 680 680 681 681 680 680 680 681 682 683 685 687 689 692 695 698 699 700 700 698 697 695 693 691 687 685 682 675 662 651
646 648 651 653 656 659 662 665 667 669 671 671 670 668 665 663 662 661 659 658 659 663 666 669 671 673 674 674 673 671 668 666 664 662 660 661 663 665 667 670 672 675 677 679 681 682 683 683 683 683 683 683 684 684 685 687 688 691 693 695 697 698 698 698 696 695 693 691 688 686 683 682 673 661 651
642 645 648 653 657 660 663 665 667 669 671 672 672 670 669 668 666 666 664 664 664 666 669 672 674 675 676 676 675 673 670 667 665 663 661 663 665 667 669 671 674 677 679 681 683 684 684 685 685 685 685 685 686 686 687 688 690 691 694 696 697 697 697 696 694 692 690 688 685 683 681 679 671 661 651
643 646 650 655 658 660 663 665 667 669 670 671 672 671 671 670 669 669 668 668 669 670 672 675 677 678 679 679 677 675 672 668 666 664 662 664 666 668 670 672 675 679 681 683 684 685 685 686 686 687 687 686 687 687 687 688 690 692 695 697 697 697 696 695 693 690 688 685 682 680 678 675 671 661 652
644 648 652 656 658 661 663 665 666 668 669 670 670 670 670 671 671 671 671 671 672 674 675 677 679 680 681 680 678 677 674 670 667 665 664 665 667 669 671 673 676 680 682 684 685 686 686 686 687 687 687 687 686 686 687 687 689 692 695 697 697 697 695 693 691 689 686 682 679 677 675 672 669 662 654
645 649 653 656 659 661 662 664 665 666 667 668 668 668 668 668 670 671 673 674 675 677 678 680 681 682 682 682 680 678 674 671 668 666 666 667 669 671 672 675 677 680 683 684 685 685 685 685 686 687 686 685 684 684 684 686 688 691 694 696 697 696 694 692 690 687 684 680 677 675 673 670 667 661 656
645 649 653 656 659 660 661 662 662 664 664 664 664 665 665 666 668 671 673 675 678 679 680 682 683 684 684 683 682 679 675 672 669 668 669 670 670 672 673 675 678 680 683 683 683 682 682 682 683 684 683 682 681 680 680 683 686 689 692 694 695 694 693 690 689 686 683 680 677 675 672 668 664 661 657
644 649 653 656 657 658 658 659 660 660 660 660 659 660 661 664 667 669 672 675 678 681 682 683 684 685 685 684 683 680 676 673 672 671 671 672 672 673 675 676 678 680 682 683 680 678 677 678 680 681 680 679 677 676 676 679 683 686 690 692 693 692 691 689 687 685 682 679 676 674 672 668 665 661 657
644 648 650 653 654 653 654 655 656 656 655 655 655 656 657 662 665 668 671 674 678 681 683 685 686 687 687 685 684 681 677 675 674 674 673 674 674 674 675 677 679 682 684 682 678 673 671 672 675 677 676 675 674 671 672 676 680 684 687 689 690 690 689 687 685 683 681 679 676 674 672 668 665 663 662
641 644 645 647 648 647 647 648 649 649 649 649 649 650 655 659 663 667 670 673 676 679 682 685 687 688 687 686 683 681 679 677 676 676 675 675 675 676 676 677 681 684 685 682 676 669 663 665 670 671 672 671 670 666 668 673 677 681 684 686 688 688 688 686 684 682 680 678 676 674 672 670 668 667 666
637 639 639 639 640 640 639 640 640 641 642 643 644 648 653 657 661 664 668 671 674 678 681 685 688 688 687 685 683 681 680 679 677 677 677 676 676 674 674 676 680 683 683 679 674 665 656 658 664 666 666 666 664 661 665 669 674 678 681 683 685 686 686 685 683 682 680 679 677 675 673 673 672 671 670
630 632 631 631 631 632 632 633 634 635 637 639 642 647 652 655 659 662 666 669 672 676 680 684 687 686 685 683 682 681 680 679 678 678 677 676 675 673 670 673 676 678 678 675 670 660 651 649 656 660 662 661 659 656 662 666 670 673 677 680 683 684 684 684 683 682 681 680 680 678 677 676 675 674 673
623 624 623 622 623 625 626 628 629 631 636 640 643 646 649 652 655 659 663 666 670 673 677 681 683 683 682 681 679 680 680 679 679 678 677 674 672 669 666 668 670 673 673 670 663 651 645 641 646 651 655 655 653 651 658 663 667 669 672 676 680 682 683 682 682 682 683 683 682 681 680 679 679 677 677
614 615 615 616 616 618 620 623 627 632 638 640 641 643 645 649 652 656 659 664 668 672 675 678 679 679 679 678 678 679 679 679 679 677 675 672 668 665 661 661 663 664 663 657 651 643 638 635 638 642 646 647 644 647 654 658 662 665 669 672 676 679 680 681 680 682 682 683 683 683 683 683 682 681 680
