ncols        75
nrows        72
xllcorner    4610588
yllcorner    5628223
cellsize     40.000000000000
NODATA_value  -9999
573.52001953125 581.20001220703125 586.469970703125 589.47998046875 591.32000732421875 593.19000244140625 593.95001220703125 594.97998046875 595.3499755859375 595.3699951171875 594.75 594.70001220703125 594.03997802734375 591.79998779296875 592.17999267578125 595.19000244140625 597.989990234375 601.30999755859375 604.53997802734375 607.83001708984375 609.94000244140625 612.40997314453125 614.58001708984375 616.02001953125 617.719970703125 618.6400146484375 619.1400146484375 619.30999755859375 620.739990234375 622.90997314453125 625.219970703125 627.28997802734375 629.22998046875 631.28997802734375 632.6099853515625 633.3900146484375 632.030029296875 629.90997314453125 626.47998046875 622.77001953125 618.780029296875 614.530029296875 610.6500244140625 606.16998291015625 605.32000732421875 608.75 613.46002197265625 621.3800048828125 628.20001220703125 630.33001708984375 629.94000244140625 630.44000244140625 631.78997802734375 632.84002685546875 634.41998291015625 635.32000732421875 634.0999755859375 631.17999267578125 626.53997802734375 622.5999755859375 620.34002685546875    617 605.03997802734375 589.70001220703125 579.20001220703125 570.96002197265625 563.71002197265625 556.30999755859375 548.69000244140625 542.27001953125 535.3699951171875 530.0999755859375 532.8599853515625 548.3499755859375 563.75
578.8900146484375 586.69000244140625 590.57000732421875 593.1500244140625 594.66998291015625 595.8499755859375 597.04998779296875 597.78997802734375 598.030029296875 598.010009765625 597.80999755859375 597.17999267578125 596.40997314453125 594.04998779296875 593.15997314453125 596.27001953125 599.34002685546875 602.79998779296875 606.33001708984375 609.1400146484375  611.5 614.22998046875 616.510009765625 618.22998046875 619.77001953125 620.72998046875 621.17999267578125 621.22998046875    622 623.760009765625 626.15997314453125 628.45001220703125 630.52001953125 632.3900146484375 633.8699951171875 634.8599853515625 633.9000244140625 631.34002685546875 627.78997802734375 624.59002685546875 620.53997802734375    616 611.94000244140625 607.82000732421875 607.16998291015625 610.4000244140625 614.6099853515625 622.15997314453125 629.53997802734375 632.8900146484375 633.16998291015625 633.25  634.5 635.59002685546875 636.66998291015625 637.22998046875 635.52001953125 632.69000244140625 630.27001953125 628.42999267578125 627.8699951171875 625.44000244140625 610.72998046875 595.1199951171875 584.4000244140625 575.510009765625 567.280029296875 559.719970703125 551.1500244140625 544.280029296875 537.969970703125 532.3599853515625 529.77001953125 543.82000732421875 558.70001220703125
583.5999755859375 592.469970703125 596.1400146484375 596.989990234375 597.65997314453125 598.45001220703125 599.08001708984375 599.91998291015625 600.16998291015625 600.29998779296875 600.20001220703125 599.780029296875 598.96002197265625 596.94000244140625 595.16998291015625 597.489990234375 600.57000732421875 604.25 607.530029296875 610.59002685546875 613.3800048828125 616.25 618.47998046875 620.280029296875 621.57000732421875 622.45001220703125 622.95001220703125 623.1300048828125 623.6400146484375 624.8599853515625 627.3699951171875 629.59002685546875 631.4000244140625 633.08001708984375 634.80999755859375 636.20001220703125 634.82000732421875 632.6199951171875 629.84002685546875 625.41998291015625 621.54998779296875 617.3800048828125 613.47998046875 609.34002685546875 608.78997802734375 611.760009765625 615.510009765625 621.739990234375 630.719970703125 634.4000244140625 635.90997314453125 636.28997802734375 637.30999755859375 638.739990234375 639.42999267578125 639.08001708984375 637.30999755859375 634.969970703125 632.969970703125 631.40997314453125 629.46002197265625 627.71002197265625 616.3599853515625 602.75 589.20001220703125 578.72998046875 570.03997802734375 562.19000244140625 553.780029296875 546.97998046875 540.69000244140625 535.66998291015625 529.58001708984375 538.5999755859375 551.70001220703125
581.04998779296875 590.530029296875 599.1099853515625 601.1199951171875 600.32000732421875 600.32000732421875 601.1300048828125 601.8499755859375 602.53997802734375 602.8900146484375 602.54998779296875 602.30999755859375 601.80999755859375 599.9000244140625 597.46002197265625 599.4000244140625 602.15997314453125 605.46002197265625 608.42999267578125 611.8900146484375 614.97998046875 617.79998779296875 619.780029296875 622.09002685546875 623.719970703125 625.010009765625 625.55999755859375 625.719970703125 626.29998779296875 626.58001708984375 628.030029296875 630.09002685546875 631.91998291015625 633.91998291015625 635.9000244140625 636.6199951171875 635.8699951171875  633.5 630.32000732421875 626.65997314453125 622.77001953125 618.69000244140625 615.09002685546875 611.6400146484375 610.03997802734375 612.719970703125 617.1300048828125 623.40997314453125 629.44000244140625 634.53997802734375 637.760009765625 639.280029296875 640.489990234375 641.6500244140625 642.1500244140625 641.34002685546875 639.52001953125 637.17999267578125 634.760009765625 632.46002197265625 630.1099853515625 626.8800048828125 616.1400146484375 602.030029296875 591.67999267578125 581.04998779296875 572.46002197265625    565 556.8900146484375 549.8900146484375 543.530029296875 537.489990234375 532.6500244140625 533.30999755859375 546.41998291015625
577.239990234375 584.4000244140625 592.07000732421875 596.1199951171875 599.0999755859375 600.55999755859375 602.30999755859375 603.260009765625 604.21002197265625 604.91998291015625 604.82000732421875 604.3900146484375 603.4000244140625 601.719970703125  599.5 601.3900146484375 604.17999267578125 607.45001220703125 610.45001220703125 613.59002685546875 616.760009765625 619.54998779296875 621.760009765625 624.469970703125 625.739990234375 626.969970703125 628.1400146484375 628.19000244140625 628.66998291015625 628.92999267578125 629.71002197265625 630.989990234375 632.969970703125 634.6300048828125 635.84002685546875 636.4000244140625 636.29998779296875 634.33001708984375 631.3800048828125 627.8900146484375 623.92999267578125 619.66998291015625 615.969970703125 613.53997802734375 612.760009765625 615.030029296875 618.94000244140625 623.989990234375 629.6199951171875 634.280029296875 638.46002197265625 641.3699951171875 643.25 644.52001953125 644.489990234375 643.19000244140625 640.8900146484375 638.02001953125 634.95001220703125 632.1400146484375 629.8599853515625 623.59002685546875 612.739990234375 601.83001708984375 593.20001220703125 585.0999755859375 576.27001953125 568.3800048828125 560.16998291015625 552.55999755859375 546.07000732421875 539.97998046875 534.719970703125 531.19000244140625  541.5
573.05999755859375 579.91998291015625 586.19000244140625 591.3900146484375 595.45001220703125 599.40997314453125 602.72998046875 604.09002685546875 605.3699951171875 606.33001708984375 606.66998291015625 606.33001708984375 605.41998291015625 603.72998046875 602.17999267578125 603.77001953125 606.41998291015625 609.280029296875 612.42999267578125 615.27001953125 618.30999755859375 621.219970703125 624.02001953125 626.03997802734375 627.94000244140625 629.15997314453125 630.25 630.69000244140625 630.760009765625 631.219970703125 631.79998779296875 632.55999755859375 633.969970703125 635.30999755859375 636.1500244140625 636.92999267578125 636.75 635.08001708984375 632.41998291015625 629.260009765625 625.94000244140625 622.17999267578125 618.989990234375 616.510009765625 615.53997802734375 617.4000244140625 620.44000244140625 624.96002197265625 630.1400146484375 634.010009765625 638.77001953125 642.25 644.78997802734375 645.239990234375 645.27001953125  644.5 641.17999267578125 637.29998779296875 633.239990234375 628.8599853515625 624.0999755859375 618.79998779296875 612.33001708984375 604.1300048828125 596.59002685546875 588.30999755859375 579.3499755859375 570.739990234375 562.83001708984375 555.5999755859375 548.91998291015625 542.80999755859375 535.91998291015625 531.53997802734375 536.260009765625
568.08001708984375 575.25 582.0999755859375 588.260009765625 593.8900146484375 598.6099853515625 602.6500244140625 604.71002197265625 606.22998046875 607.41998291015625 608.030029296875 607.70001220703125 607.1199951171875 605.4000244140625 605.04998779296875 606.15997314453125 608.3599853515625 611.5999755859375 614.489990234375 617.239990234375 619.94000244140625 623.05999755859375 625.67999267578125 627.8800048828125 630.030029296875 631.17999267578125 632.65997314453125 633.08001708984375 633.1099853515625 633.6300048828125 634.219970703125 634.489990234375 635.030029296875 636.34002685546875    637 637.42999267578125 637.3499755859375 636.21002197265625 634.07000732421875 631.66998291015625 628.969970703125 625.95001220703125 622.95001220703125 619.75 618.28997802734375 619.6500244140625 622.70001220703125 626.1500244140625 629.79998779296875 634.08001708984375 638.32000732421875 642.29998779296875 645.8699951171875 647.33001708984375 647.1099853515625 645.27001953125 641.30999755859375 636.96002197265625 632.20001220703125 626.82000732421875 622.15997314453125 617.34002685546875 611.4000244140625 604.8900146484375 597.33001708984375 589.07000732421875 581.04998779296875 573.15997314453125 566.030029296875 559.97998046875    553 545.3800048828125 536.27001953125 532.44000244140625 532.32000732421875
565.05999755859375 571.32000732421875 581.28997802734375 588.1300048828125 593.09002685546875 597.80999755859375 602.280029296875 604.58001708984375 606.72998046875 608.4000244140625 609.05999755859375 609.04998779296875 608.09002685546875 607.16998291015625 607.6099853515625 609.1300048828125 610.54998779296875 613.42999267578125 616.19000244140625 618.94000244140625 621.760009765625 624.6400146484375 627.739990234375 629.91998291015625 631.83001708984375 633.47998046875 634.71002197265625 634.6099853515625 635.47998046875 636.22998046875 636.6199951171875 637.010009765625 637.02001953125 637.71002197265625 638.08001708984375 638.47998046875 638.45001220703125 637.97998046875 636.27001953125 634.27001953125 632.34002685546875 630.030029296875 626.59002685546875 622.8499755859375 621.04998779296875 621.69000244140625 624.55999755859375 627.969970703125 631.4000244140625 634.77001953125 638.83001708984375 643.05999755859375 646.75 649.29998779296875 648.57000732421875 645.719970703125 641.72998046875 637.34002685546875 632.45001220703125 626.84002685546875 622.260009765625 617.32000732421875 611.219970703125 604.1099853515625 597.1400146484375 590.1099853515625 583.0999755859375  576.5 572.719970703125 565.3599853515625 556.8800048828125 547.469970703125 535.1500244140625 533.030029296875 532.29998779296875
564.04998779296875 568.70001220703125 579.0999755859375 586.91998291015625 593.1400146484375 597.22998046875 601.260009765625 604.66998291015625 607.52001953125 608.80999755859375 609.79998779296875 609.94000244140625 609.83001708984375 609.280029296875 609.6300048828125 611.1300048828125 612.530029296875 614.75 617.1500244140625 619.71002197265625 623.0999755859375 626.6300048828125 629.07000732421875 631.3800048828125 633.3900146484375 635.6099853515625 636.6300048828125 637.57000732421875 638.3599853515625 639.03997802734375 638.989990234375    639 638.71002197265625 639.1099853515625 639.78997802734375 640.0999755859375 640.1500244140625 639.45001220703125 638.719970703125 636.969970703125 635.219970703125 633.03997802734375 630.46002197265625 626.969970703125 623.79998779296875 623.780029296875 626.53997802734375 629.94000244140625 633.1500244140625 636.219970703125 640.04998779296875 644.4000244140625 648.80999755859375    650 649.59002685546875 645.9000244140625 641.96002197265625 637.47998046875 632.6300048828125 627.79998779296875 623.15997314453125 618.34002685546875 611.57000732421875 604.09002685546875 597.3800048828125 591.780029296875 586.3599853515625 583.92999267578125 578.219970703125 568.53997802734375 559.41998291015625 549.1199951171875 535.07000732421875 533.17999267578125 533.02001953125
564.32000732421875 567.27001953125 576.3499755859375 584.71002197265625 591.54998779296875 596.1300048828125 599.760009765625 603.67999267578125 606.8499755859375 608.02001953125 609.83001708984375 609.83001708984375 609.6199951171875 609.70001220703125 610.69000244140625 612.71002197265625 614.0999755859375 616.21002197265625 618.28997802734375 621.22998046875 624.989990234375 627.58001708984375 629.969970703125 633.09002685546875 635.3800048828125 637.42999267578125 638.3900146484375 639.8599853515625 640.90997314453125 641.45001220703125 641.1199951171875 640.75 640.57000732421875 640.69000244140625 641.19000244140625 641.54998779296875 641.52001953125 641.59002685546875 640.95001220703125 639.53997802734375 637.58001708984375 635.760009765625    633 629.8699951171875 626.55999755859375 627.66998291015625 629.34002685546875  631.5 634.1199951171875 637.219970703125 641.19000244140625 645.69000244140625 649.77001953125    650 649.33001708984375 645.59002685546875 641.77001953125 637.260009765625 632.46002197265625 627.32000732421875 623.59002685546875 617.5999755859375 610.55999755859375 604.510009765625 599.8499755859375 597.21002197265625 592.969970703125 588.760009765625 581.030029296875 571.469970703125 561.78997802734375 550.84002685546875 536.3499755859375 533.3599853515625 533.760009765625
565.21002197265625 566.530029296875 573.28997802734375 583.16998291015625 589.219970703125 594.04998779296875 597.77001953125 601.29998779296875 602.6300048828125 603.77001953125 605.989990234375 607.40997314453125 608.510009765625 609.5999755859375 611.04998779296875 612.59002685546875 614.3800048828125 616.78997802734375 619.05999755859375 622.15997314453125 625.55999755859375 628.44000244140625 631.3599853515625 634.08001708984375 636.469970703125 638.59002685546875 640.469970703125 641.90997314453125 642.70001220703125 643.1500244140625 643.3800048828125 642.95001220703125 642.69000244140625 642.77001953125 643.42999267578125 643.80999755859375 643.219970703125 643.59002685546875 643.34002685546875 641.83001708984375 640.1099853515625 638.5999755859375 636.1300048828125 632.53997802734375 629.66998291015625 631.30999755859375 632.46002197265625 633.59002685546875 636.47998046875 639.02001953125 642.739990234375 646.77001953125 649.79998779296875    650 648.8800048828125 645.239990234375 641.3699951171875 637.20001220703125 632.8599853515625 628.53997802734375 623.3699951171875  617.5 611.239990234375 607.66998291015625 606.6300048828125 603.97998046875 598.72998046875 592.55999755859375 584.9000244140625 574.91998291015625 564.42999267578125 552.40997314453125 539.3499755859375 535.07000732421875 534.489990234375
566.1099853515625 566.82000732421875    573 580.90997314453125 587.469970703125 591.33001708984375 594.59002685546875 596.57000732421875 597.719970703125 599.1300048828125 601.59002685546875 603.90997314453125 605.739990234375 607.90997314453125 610.1500244140625 612.28997802734375 614.47998046875 616.66998291015625 619.40997314453125 622.8900146484375 625.69000244140625 628.92999267578125 631.96002197265625 634.9000244140625 637.4000244140625 639.84002685546875 642.04998779296875 643.510009765625 644.65997314453125 645.15997314453125 645.47998046875 644.94000244140625 644.77001953125 644.94000244140625 645.1500244140625 645.29998779296875 645.67999267578125 645.760009765625 645.17999267578125 644.6099853515625 642.91998291015625 641.04998779296875 638.46002197265625 635.21002197265625 633.91998291015625 635.1500244140625 636.45001220703125 637.3800048828125 638.6400146484375 641.44000244140625 644.510009765625 648.03997802734375 649.989990234375    650 648.969970703125 645.489990234375 641.45001220703125 636.91998291015625 632.20001220703125 627.1500244140625 622.6300048828125 617.90997314453125 614.8499755859375 613.9000244140625 613.030029296875 610.1400146484375 603.8699951171875 597.5999755859375 588.46002197265625 577.260009765625 565.8599853515625 553.4000244140625 540.42999267578125 536.05999755859375 535.20001220703125
566.8699951171875 567.1300048828125 573.3900146484375 580.3800048828125 585.510009765625 588.32000732421875 589.91998291015625 591.010009765625 593.719970703125 596.47998046875 600.25 603.219970703125 604.78997802734375 606.1300048828125 608.77001953125 611.47998046875 613.92999267578125 616.1500244140625 619.16998291015625 622.530029296875 626.27001953125 629.010009765625 632.28997802734375 635.0999755859375 637.989990234375 640.8900146484375 643.1300048828125 644.97998046875 646.030029296875 647.05999755859375 647.57000732421875 646.91998291015625 645.989990234375 646.219970703125 646.34002685546875 646.8900146484375 647.3800048828125 647.6099853515625 647.65997314453125 647.1199951171875 645.8699951171875 644.21002197265625 641.6199951171875 639.19000244140625 638.8800048828125 639.45001220703125 640.17999267578125 640.57000732421875 642.280029296875 644.09002685546875 646.71002197265625 649.20001220703125 649.989990234375    650 648.90997314453125 645.44000244140625 641.29998779296875 636.8599853515625 632.02001953125 626.77001953125 623.030029296875 621.3499755859375 619.969970703125 619.40997314453125 618.1400146484375 614.6199951171875 609.02001953125 601.989990234375 591.530029296875 579.47998046875 567.21002197265625 554.66998291015625 541.9000244140625 536.94000244140625 535.84002685546875
567.84002685546875 568.17999267578125 572.780029296875 581.05999755859375 583.67999267578125 584.97998046875 585.58001708984375 589.530029296875 595.54998779296875 600.79998779296875 603.96002197265625 606.469970703125 607.91998291015625 608.510009765625 609.32000732421875 610.969970703125 613.41998291015625 615.80999755859375 618.989990234375 622.1500244140625 626.03997802734375 628.8499755859375 631.969970703125 634.94000244140625 638.28997802734375 641.260009765625 644.22998046875 645.90997314453125 647.33001708984375 648.280029296875 647.989990234375 647.32000732421875 646.469970703125 646.83001708984375 647.25  648.5 648.97998046875 649.28997802734375 649.45001220703125 648.94000244140625 648.260009765625 646.79998779296875 644.71002197265625 643.1099853515625 642.71002197265625 643.6400146484375 643.97998046875 644.04998779296875 644.90997314453125 646.0999755859375 649.05999755859375 651.57000732421875 651.1400146484375 650.1099853515625 648.6500244140625 645.1400146484375 640.78997802734375 636.53997802734375 632.02001953125 628.15997314453125 626.02001953125 624.8900146484375 624.3599853515625 623.469970703125 621.510009765625 617.8800048828125 611.92999267578125 604.780029296875 596.20001220703125 583.1500244140625 570.8800048828125 558.6400146484375 546.25 537.22998046875 536.05999755859375
569.1199951171875 568.739990234375 571.510009765625 577.760009765625 580.6099853515625 581.33001708984375 583.09002685546875 589.3699951171875 597.6199951171875 603.84002685546875 607.6099853515625 609.70001220703125 610.54998779296875 610.469970703125 610.45001220703125 611.46002197265625 613.1400146484375 615.67999267578125 618.29998779296875 621.530029296875 625.19000244140625 628.07000732421875 631.4000244140625 634.6099853515625 637.8900146484375 640.9000244140625 643.739990234375 646.03997802734375 648.20001220703125 649.08001708984375 649.05999755859375 647.6199951171875 647.07000732421875 647.47998046875 648.6400146484375 649.04998779296875 649.52001953125 651.21002197265625 650.84002685546875 650.75 649.69000244140625 648.8699951171875 648.0999755859375 647.1500244140625 646.66998291015625 647.239990234375 647.95001220703125 648.8800048828125 648.989990234375 648.8900146484375 650.5999755859375 653.30999755859375 653.71002197265625 651.75 648.46002197265625 644.8900146484375 641.07000732421875 637.83001708984375 635.41998291015625 632.84002685546875 631.260009765625 630.1199951171875 628.67999267578125 626.8499755859375 624.4000244140625 619.94000244140625 614.0999755859375 607.41998291015625 600.04998779296875 587.84002685546875 575.41998291015625 563.280029296875 551.07000732421875 539.4000244140625 536.40997314453125
570.28997802734375 570.03997802734375 570.9000244140625 573.739990234375 576.95001220703125 577.66998291015625 581.510009765625 587.70001220703125 594.3699951171875 601.72998046875    608 611.17999267578125 611.72998046875 610.989990234375 610.20001220703125 611.05999755859375 612.469970703125 614.57000732421875 617.41998291015625 620.77001953125 623.94000244140625 626.75 629.83001708984375    633 636.30999755859375 640.010009765625 642.97998046875 645.6199951171875 648.40997314453125 649.54998779296875 648.8499755859375 647.59002685546875 647.44000244140625 647.1199951171875 647.760009765625 648.66998291015625 649.59002685546875 650.40997314453125 651.09002685546875 651.1300048828125 650.719970703125 650.58001708984375 650.79998779296875 651.19000244140625 651.22998046875 651.530029296875 652.25 652.3599853515625 652.95001220703125 652.44000244140625 653.1300048828125 654.41998291015625 654.969970703125 652.8800048828125 649.510009765625 646.53997802734375 644.219970703125 642.79998779296875 640.6400146484375 638.75 637.3499755859375 635.96002197265625 634.20001220703125 632.3599853515625 629.65997314453125 625.5999755859375 618.219970703125 611.4000244140625 603.79998779296875 592.34002685546875 580.34002685546875 568.1300048828125 555.82000732421875 543.719970703125 538.41998291015625
572.0999755859375 571.34002685546875 571.54998779296875 574.8699951171875 578.19000244140625 579.9000244140625 581.46002197265625 584.67999267578125 590.1500244140625 595.57000732421875 603.6400146484375 609.1400146484375 610.8900146484375 609.95001220703125 608.67999267578125 608.90997314453125 610.66998291015625 612.84002685546875 615.44000244140625 618.239990234375 621.6099853515625 625.58001708984375 628.6199951171875 631.6199951171875 634.530029296875 637.780029296875 640.95001220703125 643.72998046875 646.5999755859375 647.28997802734375 646.8599853515625 646.17999267578125    646 645.760009765625 645.9000244140625 647.030029296875 648.3499755859375 649.1500244140625 649.91998291015625 650.79998779296875 651.72998046875 652.3599853515625 653.20001220703125 653.989990234375 654.45001220703125 655.04998779296875 655.55999755859375 655.53997802734375 655.47998046875 655.65997314453125 655.70001220703125 656.15997314453125 656.21002197265625 655.42999267578125 653.40997314453125 651.08001708984375 649.54998779296875 647.8900146484375 645.739990234375 644.1400146484375    643 641.3499755859375 639.29998779296875 637.30999755859375 635.010009765625 631.54998779296875 625.239990234375 616.8599853515625 607.780029296875 596.57000732421875 583.469970703125 572.3800048828125 560.59002685546875 548.6199951171875 539.760009765625
573.72998046875 572.84002685546875 573.53997802734375 577.42999267578125 582.69000244140625 585.08001708984375 586.41998291015625 586.79998779296875 586.78997802734375 590.8800048828125 596.3599853515625 602.3900146484375 606.30999755859375 606.46002197265625 605.46002197265625    606 608.42999267578125 610.82000732421875 613.47998046875 616.3800048828125 619.59002685546875 623.53997802734375 627.09002685546875 630.0999755859375 633.16998291015625 635.3599853515625 638.40997314453125 640.8599853515625 643.17999267578125 643.71002197265625 643.67999267578125 643.219970703125 642.8499755859375 642.969970703125 643.67999267578125 644.96002197265625 646.719970703125 648.32000732421875 649.91998291015625 651.57000732421875 652.82000732421875 654.280029296875 655.30999755859375 655.92999267578125 657.1500244140625 657.83001708984375 659.030029296875 659.17999267578125 659.29998779296875 658.969970703125 659.15997314453125 659.55999755859375 659.32000732421875 657.94000244140625 656.65997314453125 656.09002685546875  654.5 652.41998291015625 650.32000732421875 649.22998046875 647.719970703125 645.96002197265625 643.96002197265625 642.42999267578125 640.3900146484375 637.1400146484375 630.95001220703125 621.09002685546875 610.6400146484375 598.94000244140625 587.219970703125 576.07000732421875  564.5 553.52001953125 545.0999755859375
576 573.91998291015625 574.42999267578125 579.469970703125 587.69000244140625 590.08001708984375 591.6500244140625 591.75 591.21002197265625 590.82000732421875 591.34002685546875 595.6199951171875 598.8800048828125 600.6500244140625 601.5999755859375 603.82000732421875 606.40997314453125 609.469970703125 612.42999267578125 615.21002197265625 618.33001708984375 621.72998046875    625 628.030029296875 631.1199951171875 633.66998291015625 635.8900146484375 638.030029296875 639.59002685546875 640.46002197265625 640.97998046875 640.469970703125 640.16998291015625 640.42999267578125 641.46002197265625 643.1099853515625 644.95001220703125 647.1099853515625 649.3599853515625 651.45001220703125 653.28997802734375 654.83001708984375 656.46002197265625 656.92999267578125 659.32000732421875 660.1500244140625 661.41998291015625 662.25 662.90997314453125 662.80999755859375 662.80999755859375 663.4000244140625 662.44000244140625 661.46002197265625 660.780029296875 660.34002685546875 659.1099853515625 657.1099853515625 655.8499755859375 654.27001953125 652.27001953125 650.55999755859375 648.95001220703125 647.6099853515625 644.92999267578125 640.40997314453125 633.469970703125 624.010009765625 613.6400146484375 602.3499755859375 590.280029296875 577.3699951171875 566.6500244140625 557.54998779296875 550.30999755859375
576.780029296875 574.53997802734375 576.30999755859375 583.77001953125 593.219970703125 595.84002685546875 597.57000732421875 597.760009765625 597.45001220703125 597.04998779296875 597.08001708984375 597.3900146484375 598.46002197265625 599.33001708984375 600.32000732421875 602.8499755859375 605.19000244140625 608.6300048828125 611.8699951171875 614.3599853515625 617.79998779296875 620.91998291015625 623.70001220703125 626.52001953125 629.05999755859375 631.17999267578125 632.96002197265625 634.6500244140625 635.83001708984375  636.5 636.90997314453125 636.780029296875 636.78997802734375 637.53997802734375 638.80999755859375 640.969970703125 643.33001708984375 645.96002197265625 648.780029296875 650.760009765625 652.83001708984375 654.760009765625 656.6400146484375 657.96002197265625 659.72998046875 662.09002685546875 663.6300048828125 664.719970703125 665.96002197265625 665.9000244140625 665.94000244140625 666.04998779296875 665.65997314453125 665.260009765625 664.530029296875 663.97998046875 663.53997802734375 662.19000244140625 661.05999755859375 659.280029296875 657.260009765625 655.84002685546875 654.66998291015625 652.77001953125 648.16998291015625 642.41998291015625 635.57000732421875 626.16998291015625 616.32000732421875 603.530029296875 591.030029296875 578.219970703125 568.65997314453125 560.91998291015625 554.9000244140625
577.8699951171875 575.77001953125 577.3599853515625 587.1300048828125 595.469970703125 600.510009765625 603.41998291015625 604.17999267578125 603.77001953125    603 602.22998046875 601.92999267578125 601.989990234375 602.69000244140625 602.8499755859375 603.46002197265625 604.90997314453125 607.57000732421875 610.17999267578125 613.41998291015625 617.27001953125 620.17999267578125 622.6400146484375 624.97998046875 626.96002197265625 628.510009765625 630.4000244140625 631.65997314453125 632.33001708984375 632.67999267578125 633.1099853515625 633.1400146484375 633.71002197265625 634.8499755859375 637.030029296875 639.59002685546875 641.97998046875 644.83001708984375 647.97998046875 650.59002685546875 652.6199951171875 654.739990234375 656.84002685546875 658.66998291015625 661.1300048828125 664.04998779296875 665.3800048828125 667.46002197265625 668.29998779296875 669.07000732421875 669.989990234375 670.3699951171875 669.57000732421875 668.8499755859375 668.34002685546875 668.1300048828125 668.41998291015625 667.6300048828125 666.17999267578125 664.280029296875 663.030029296875 662.09002685546875 660.21002197265625 657.42999267578125 651.8699951171875 645.78997802734375 637.469970703125 627.8800048828125 615.16998291015625 602.58001708984375 591.92999267578125 581.47998046875 571.83001708984375 564.3599853515625 559.09002685546875
579.02001953125 577.280029296875 578.780029296875 588.010009765625 595.469970703125 603.78997802734375 608.760009765625 610.6199951171875 610.6400146484375 609.55999755859375 607.969970703125 606.69000244140625 605.96002197265625 605.80999755859375 606.1300048828125 607.030029296875 606.97998046875 607.45001220703125 609.6400146484375 612.78997802734375 616.45001220703125 619.04998779296875 621.3699951171875 623.46002197265625    625  626.5 627.94000244140625 628.22998046875 629.09002685546875 629.1300048828125 629.75 629.58001708984375 630.65997314453125    633 636.469970703125 639.05999755859375  641.5 644.27001953125 647.16998291015625 650.15997314453125 652.96002197265625 655.239990234375 657.19000244140625 659.41998291015625 662.55999755859375 665.20001220703125 667.1300048828125 668.84002685546875 670.21002197265625 672.03997802734375 673.33001708984375 674.32000732421875    674 673.25 673.1199951171875    673 673.260009765625 672.510009765625 671.09002685546875 669.83001708984375 669.489990234375 668.19000244140625 665.52001953125 661.52001953125 655.989990234375 649.6099853515625 639.59002685546875 627.16998291015625 614.54998779296875 602.79998779296875  593.5 584.530029296875 575.739990234375 569.07000732421875 563.47998046875
582.28997802734375 578.0999755859375 579.34002685546875 586.469970703125 595.57000732421875 606.6500244140625 614.3800048828125 616.3499755859375 616.20001220703125 615.34002685546875 614.030029296875 611.95001220703125 610.46002197265625 609.3900146484375 609.15997314453125 609.54998779296875 609.969970703125 610.780029296875 611.97998046875 614.3900146484375 616.21002197265625 618.22998046875 620.47998046875 622.09002685546875 623.25 624.1500244140625 624.47998046875 624.70001220703125 625.05999755859375 625.489990234375 626.03997802734375 626.280029296875 628.97998046875 632.6300048828125 636.1500244140625 638.53997802734375 641.21002197265625 644.21002197265625 647.04998779296875 649.8499755859375 652.53997802734375 655.1099853515625  657.5 660.04998779296875 663.239990234375 666.1199951171875 667.83001708984375 669.219970703125 671.28997802734375 674.010009765625 676.02001953125 676.8800048828125 678.1400146484375 677.6199951171875 677.6199951171875 677.6500244140625 678.16998291015625 678.21002197265625 678.030029296875 678.6500244140625 676.83001708984375 674.97998046875 671.16998291015625 666.44000244140625 660.04998779296875 651.25 640.07000732421875 628.75 616.239990234375 605.07000732421875 595.41998291015625 588.44000244140625 579.8699951171875 573.739990234375 568.530029296875
584.8800048828125 579.79998779296875 579.53997802734375 587.03997802734375 598.28997802734375 609.489990234375 617.66998291015625 620.83001708984375 621.010009765625 619.97998046875 618.25 615.92999267578125 614.1400146484375 612.66998291015625 612.16998291015625 612.6300048828125 613.08001708984375 613.8900146484375 614.6099853515625    616 617.54998779296875 618.78997802734375 619.45001220703125 621.19000244140625 621.44000244140625 621.15997314453125 621.3800048828125 621.57000732421875 622.219970703125 622.52001953125 622.44000244140625 625.280029296875 629.239990234375 632.80999755859375 635.8800048828125 638.82000732421875 641.69000244140625 644.54998779296875 647.30999755859375 649.219970703125 651.67999267578125 654.42999267578125 657.260009765625 659.760009765625 662.72998046875 665.52001953125 667.57000732421875 669.34002685546875 672.25 675.28997802734375 678.07000732421875 679.6500244140625 681.28997802734375 681.41998291015625 681.510009765625 682.4000244140625 683.6300048828125 684.8499755859375 686.280029296875 685.5999755859375 682.55999755859375 679.28997802734375 675.03997802734375 669.47998046875 663.42999267578125 653.4000244140625 641.489990234375 631.03997802734375 618.3599853515625 607.45001220703125 599.46002197265625 592.780029296875 585.84002685546875 579.84002685546875 575.030029296875
587.47998046875 582.15997314453125 580.8800048828125 588.47998046875 600.780029296875 611.28997802734375 620.8800048828125 626.28997802734375 627.760009765625 626.07000732421875 622.6099853515625 618.83001708984375 616.8599853515625 615.3699951171875 615.780029296875 615.969970703125 616.55999755859375 616.989990234375 617.09002685546875 617.90997314453125 618.83001708984375 619.34002685546875 619.3699951171875 618.969970703125 618.510009765625 617.989990234375 618.4000244140625 618.77001953125 619.0999755859375 619.19000244140625 620.9000244140625 625.07000732421875 629.59002685546875 632.8599853515625 635.45001220703125 638.0999755859375 640.33001708984375 643.1400146484375 645.1199951171875 647.469970703125 650.04998779296875 652.95001220703125 656.07000732421875 658.84002685546875 661.42999267578125 664.58001708984375 666.96002197265625 669.3699951171875 672.1300048828125 675.27001953125 678.77001953125 681.1400146484375 683.19000244140625 684.530029296875 685.15997314453125 686.72998046875 688.8499755859375 690.09002685546875 690.489990234375 688.84002685546875 685.66998291015625 682.33001708984375 677.8800048828125 671.780029296875 665.05999755859375 654.530029296875 643.83001708984375 634.239990234375 622.489990234375 611.22998046875 604.04998779296875 598.010009765625 592.95001220703125 586.78997802734375 581.04998779296875
589.3499755859375 583.739990234375 581.0999755859375 586.989990234375 600.489990234375 613.6099853515625 623.95001220703125 630.71002197265625 633.42999267578125 632.260009765625 629.3900146484375 623.3699951171875 619.17999267578125 617.55999755859375 618.19000244140625 620.02001953125 620.34002685546875 619.57000732421875 619.19000244140625 619.27001953125 619.33001708984375 619.59002685546875 619.02001953125 617.4000244140625 615.9000244140625 615.010009765625 615.010009765625 615.6300048828125 615.45001220703125 617.219970703125 620.82000732421875 624.94000244140625 628.469970703125 631.57000732421875 633.96002197265625 635.989990234375 638.469970703125 641.28997802734375 643.1099853515625 645.4000244140625 647.989990234375 651.20001220703125 654.1099853515625 656.44000244140625 659.83001708984375 663.15997314453125 665.1400146484375 667.04998779296875 669.510009765625 672.44000244140625 677.3900146484375 681.0999755859375 683.3800048828125 685.94000244140625 687.84002685546875 689.80999755859375 691.6199951171875  692.5 691.53997802734375 689.44000244140625 686.16998291015625 682.19000244140625 676.77001953125 671.41998291015625 664.72998046875 657.030029296875  647.5 638.21002197265625 626.15997314453125 615.80999755859375 610.84002685546875 605.70001220703125 599.780029296875 593.20001220703125 586.20001220703125
591.4000244140625 585.67999267578125 582.719970703125 585.05999755859375 598.83001708984375 613.07000732421875 622.97998046875 631.95001220703125 634.3599853515625 632.8699951171875 630.1500244140625 623.96002197265625 618.41998291015625 616.77001953125 618.6300048828125 620.41998291015625 620.8599853515625 620.6500244140625 620.46002197265625 620.32000732421875 619.44000244140625 619.16998291015625 617.94000244140625 615.69000244140625 613.17999267578125 611.94000244140625 612.260009765625 612.6099853515625 613.52001953125 616.70001220703125 620.52001953125 623.9000244140625 627.09002685546875 629.719970703125 632.030029296875 633.8800048828125 635.79998779296875 638.59002685546875 640.69000244140625 643.08001708984375 646.28997802734375 649.34002685546875 651.54998779296875 653.6300048828125 656.78997802734375 659.97998046875 661.8900146484375 663.77001953125 665.77001953125 669.530029296875 674.57000732421875 678.469970703125 681.84002685546875 685.4000244140625 688.70001220703125 691.04998779296875 692.40997314453125  692.5 691.0999755859375 688.40997314453125 684.8900146484375 680.6500244140625 675.54998779296875 670.8599853515625    665 657.82000732421875 648.80999755859375 640.6099853515625 630.780029296875 623.69000244140625 619.54998779296875 613.6400146484375 606.40997314453125 599.489990234375 592.1300048828125
593.1099853515625 587.9000244140625 583.34002685546875 584.780029296875 595.3599853515625 609.20001220703125 619.71002197265625  627.5 629.46002197265625 628.530029296875 626.07000732421875 619.90997314453125 614.66998291015625 613.1500244140625 615.1400146484375 617.66998291015625 618.42999267578125 619.6199951171875 620.3499755859375 620.0999755859375 619.25 618.66998291015625 616.20001220703125 613.42999267578125 610.19000244140625 608.77001953125 609.34002685546875 610.72998046875 612.6199951171875 616.15997314453125 619.66998291015625 622.54998779296875 625.33001708984375 627.469970703125 629.260009765625 631.1500244140625 632.33001708984375 634.70001220703125 637.30999755859375 640.239990234375 643.78997802734375 646.71002197265625  648.5 650.83001708984375 653.41998291015625 656.1400146484375 658.46002197265625 660.52001953125 663.239990234375 666.8499755859375 671.21002197265625 675.30999755859375 679.30999755859375 683.3800048828125 687.47998046875 690.94000244140625 692.280029296875    692 689.83001708984375 686.94000244140625 683.8499755859375 680.15997314453125 675.83001708984375    671 665.22998046875 657.96002197265625 651.27001953125 642.8800048828125 637.33001708984375 632.71002197265625 626.91998291015625 620.57000732421875 613.1300048828125 604.66998291015625 596.29998779296875
595.65997314453125 590.9000244140625 585.47998046875 584.65997314453125 589.8499755859375 602.83001708984375 613.90997314453125 619.739990234375 622.1500244140625 621.82000732421875 619.32000732421875 614.260009765625 609.3499755859375 607.09002685546875 608.969970703125 611.3699951171875 613.3800048828125 614.3900146484375 615.05999755859375 615.0999755859375 615.95001220703125 615.1300048828125 611.70001220703125 607.969970703125 606.45001220703125 606.70001220703125 607.8900146484375 609.3900146484375 612.16998291015625 615.1099853515625 618.54998779296875 621.8800048828125 623.6500244140625 624.91998291015625 626.45001220703125 627.44000244140625 629.239990234375 631.75 634.58001708984375 637.3499755859375 641.03997802734375 643.17999267578125 644.95001220703125 647.5999755859375 649.82000732421875  652.5 655.3599853515625 658.28997802734375 661.41998291015625 664.8900146484375 667.67999267578125 672.15997314453125 677.260009765625 682.1199951171875 686.65997314453125 690.22998046875 691.41998291015625 690.719970703125 688.8599853515625 686.530029296875 683.67999267578125 680.08001708984375 676.25 671.91998291015625 666.08001708984375 659.55999755859375 653.59002685546875 647.8699951171875 644.25 639.47998046875 634.8699951171875 627.07000732421875 618.40997314453125 609.3800048828125 601.030029296875
596.83001708984375 593.6099853515625 587.8800048828125 586.22998046875 587.32000732421875 594.3900146484375 603.760009765625 608.510009765625 610.5999755859375 611.78997802734375 610.52001953125 608.280029296875 604.260009765625 601.97998046875 601.77001953125 603.16998291015625    604 605.22998046875 606.66998291015625 607.1199951171875 607.54998779296875 605.07000732421875 603.44000244140625  603.5 604.3900146484375 605.57000732421875 606.5999755859375 608.33001708984375 610.54998779296875 613.489990234375 617.02001953125 620.80999755859375 621.6500244140625 622.3699951171875 623.280029296875 624.239990234375 626.219970703125 628.739990234375 631.02001953125 633.8800048828125 636.72998046875 639.40997314453125 641.739990234375 644.08001708984375 646.67999267578125 649.489990234375 652.22998046875 655.58001708984375 659.6199951171875 663.57000732421875 666.66998291015625 670.3499755859375 675.3599853515625 681.21002197265625 685.57000732421875 689.34002685546875 690.8699951171875 689.72998046875 688.0999755859375 686.1400146484375 683.6199951171875 680.15997314453125 676.9000244140625 673.28997802734375 667.3699951171875 662.44000244140625 658.52001953125 655.219970703125 651.97998046875 647.83001708984375 642.9000244140625 633.3900146484375 623.6400146484375 614.71002197265625 606.55999755859375
599.8699951171875 597.0999755859375 591.59002685546875 587.4000244140625 586.92999267578125 589.4000244140625 594.1400146484375 597.739990234375 600.1099853515625 601.21002197265625 600.53997802734375 599.719970703125 598.25 597.20001220703125 596.08001708984375 597.46002197265625 598.780029296875 599.030029296875 599.42999267578125 600.47998046875 601.260009765625 601.84002685546875 604.3699951171875 604.760009765625 604.40997314453125 605.32000732421875 606.21002197265625 607.65997314453125 608.71002197265625 610.84002685546875 614.33001708984375 618.40997314453125 619.45001220703125 619.33001708984375 619.8599853515625 620.8699951171875 623.1400146484375 625.27001953125 626.96002197265625 630.030029296875 632.75 635.77001953125 638.30999755859375 640.780029296875 643.53997802734375 646.54998779296875 649.760009765625 653.45001220703125 658.45001220703125 662.30999755859375 666.40997314453125 669.84002685546875 674.44000244140625    679 684.52001953125 688.83001708984375 689.91998291015625 688.510009765625 687.1099853515625 685.1500244140625 682.77001953125 680.260009765625 677.8800048828125 673.969970703125 669.07000732421875 667.29998779296875 665.780029296875 663.69000244140625 662.3599853515625 660.65997314453125 651.719970703125 639.94000244140625 628.72998046875 620.1300048828125 611.15997314453125
603.6400146484375 600.8900146484375 597.219970703125 593.21002197265625 589.55999755859375 587.780029296875 589.030029296875 591.27001953125 592.59002685546875 592.989990234375 593.25 593.530029296875 594.6300048828125 595.08001708984375 596.1099853515625 597.21002197265625 597.83001708984375 598.59002685546875 599.67999267578125 601.19000244140625 603.21002197265625 605.6099853515625 607.67999267578125 608.70001220703125 608.4000244140625 607.010009765625 606.1400146484375 606.8499755859375 608.03997802734375 609.25 610.90997314453125 613.30999755859375 615.05999755859375 615.91998291015625 617.09002685546875 618.94000244140625 621.52001953125 623.28997802734375 626.45001220703125 629.19000244140625 631.72998046875  633.5 635.22998046875 638.1099853515625 640.94000244140625 644.79998779296875 649.20001220703125 653.3900146484375 657.72998046875 661.8900146484375 665.84002685546875 669.6300048828125 673.58001708984375 677.59002685546875 683.46002197265625 687.3499755859375 687.9000244140625 687.25 685.6300048828125 683.57000732421875 682.1400146484375 680.719970703125 678.02001953125 673.8499755859375 673.09002685546875 673.71002197265625    675 677.719970703125 679.92999267578125 676.219970703125 659.30999755859375 645.42999267578125 631.739990234375 622.08001708984375 613.030029296875
608.21002197265625 605.92999267578125 602.58001708984375 599.29998779296875 596.3499755859375 592.0999755859375 590.05999755859375 590.280029296875 591.20001220703125 592.57000732421875 594.67999267578125 595.3699951171875 594.47998046875 596.19000244140625 597.95001220703125 601.6300048828125 601.97998046875 602.9000244140625 603.8900146484375 605.27001953125 607.59002685546875 609.8499755859375 611.469970703125 612.6500244140625 612.489990234375 611.6199951171875 609.54998779296875 609.34002685546875 609.53997802734375 609.75 610.1500244140625 611.29998779296875 612.44000244140625 614.46002197265625 616.6199951171875 619.239990234375 623.0999755859375 627.41998291015625 630.1400146484375 632.8599853515625 635.719970703125 637.57000732421875 639.03997802734375 640.84002685546875 643.53997802734375 645.84002685546875 649.57000732421875 653.29998779296875 657.33001708984375 661.510009765625 665.3699951171875 669.27001953125 672.8499755859375 676.44000244140625 681.1500244140625 685.07000732421875 685.6400146484375 685.1099853515625 683.969970703125 682.84002685546875 682.25 680.8599853515625 678.21002197265625 675.30999755859375 678.09002685546875 679.989990234375 682.30999755859375 684.1400146484375    685 680.6199951171875 666.6199951171875 650.489990234375 631.239990234375 621.260009765625 612.65997314453125
612.719970703125 610.42999267578125 608.0999755859375 605.79998779296875 604.1500244140625 600.1400146484375 598.3800048828125 597.25 596.54998779296875 598.25 599.16998291015625 599.42999267578125 596.83001708984375 597.07000732421875 599.55999755859375 605.6099853515625 610.3599853515625 611.469970703125 610.15997314453125 611.010009765625 612.8499755859375 613.8499755859375 615.66998291015625 616.54998779296875 616.47998046875 615.57000732421875 614.28997802734375 613.27001953125 612.95001220703125 612.5999755859375 611.78997802734375 611.70001220703125 612.1099853515625 613.72998046875 617.1500244140625 620.96002197265625 624.16998291015625 628.77001953125 633.25 635.55999755859375 638.739990234375 641.47998046875 642.8499755859375 645.16998291015625 646.90997314453125 648.760009765625 651.17999267578125 654.42999267578125 657.8599853515625 661.80999755859375 665.34002685546875 669.010009765625 672.52001953125 676.3599853515625 679.3800048828125 682.08001708984375 683.55999755859375 683.4000244140625 683.25 682.8800048828125 682.719970703125 681.96002197265625 680.280029296875 678.72998046875 681.25 683.239990234375 685.02001953125    685 681.69000244140625 673.5999755859375 664.71002197265625 649.32000732421875 630.90997314453125    621 612.010009765625
617.280029296875 615.1199951171875 612.989990234375 611.4000244140625 610.09002685546875 608.45001220703125 607.010009765625 606.1099853515625 605.40997314453125 604.75 603.6400146484375 603.510009765625 600.530029296875 598.65997314453125 599.8699951171875 603.75 608.97998046875 614.6099853515625 615.8599853515625 617.46002197265625 619.260009765625 619.489990234375 620.05999755859375 620.8699951171875 620.28997802734375 619.75 618.739990234375 618.09002685546875 616.6300048828125 616.1199951171875 615.46002197265625 614.66998291015625 613.91998291015625 614.1199951171875 616.6300048828125 620.4000244140625 624.6099853515625 628.33001708984375 632.8800048828125 637.95001220703125 641.53997802734375 645.21002197265625 647.08001708984375 648.780029296875 650.22998046875 651.8499755859375 653.989990234375 656.6500244140625 659.8699951171875 663.25 666.69000244140625 670.0999755859375 672.77001953125 675.82000732421875 678.28997802734375 680.55999755859375 682.15997314453125 683.42999267578125 683.69000244140625 684.03997802734375 684.16998291015625 683.55999755859375 682.3599853515625 681.1300048828125 681.489990234375 682.46002197265625 682.29998779296875 679.66998291015625 673.07000732421875 665.09002685546875 656.82000732421875 643.47998046875 630.08001708984375 620.9000244140625 611.97998046875
621.03997802734375 619.8800048828125 617.489990234375 616.04998779296875 614.97998046875 613.82000732421875 613.1500244140625 612.55999755859375 612.47998046875 610.90997314453125 608.739990234375 607.1099853515625 604.030029296875 600.1199951171875 600.66998291015625    602 605.96002197265625 613.3800048828125 620.739990234375 623.84002685546875  625.5 626.28997802734375 625.32000732421875 625.030029296875 624.45001220703125 625.219970703125 623.1500244140625 621.32000732421875 621.02001953125 619.79998779296875 618.70001220703125  618.5 617.70001220703125 616.19000244140625 615.78997802734375 619.84002685546875 624.03997802734375 628.219970703125 632.40997314453125 639.6300048828125 645.34002685546875 648.219970703125 650.54998779296875 651.77001953125 653.030029296875 654.33001708984375 656.45001220703125 658.9000244140625 661.82000732421875 665.030029296875 668.1500244140625 671.1199951171875 674.6300048828125 678.29998779296875 681.0999755859375 682.05999755859375 682.6300048828125 683.6300048828125 684.280029296875 684.55999755859375 684.969970703125 684.71002197265625 683.52001953125 682.32000732421875 680.6400146484375 678.8900146484375 675.9000244140625 670.969970703125 663.8499755859375 655.8800048828125 646.90997314453125 636.6400146484375 627.1099853515625 619.80999755859375 611.96002197265625
624.03997802734375 623.53997802734375 621.489990234375 620.25 619.780029296875 619.219970703125 618.72998046875 617.8699951171875 616.6099853515625 614.70001220703125 611.91998291015625 610.08001708984375 607.16998291015625 602.1099853515625 600.3499755859375 602.84002685546875 604.91998291015625 609.67999267578125 617.84002685546875 624.1300048828125 628.34002685546875 632.29998779296875 632.97998046875 629.92999267578125 628.4000244140625 627.59002685546875 626.8499755859375 626.1300048828125 623.17999267578125 622.54998779296875 621.489990234375 621.21002197265625 620.58001708984375 618.42999267578125 616.989990234375 618.78997802734375 623.469970703125 629.09002685546875 632.91998291015625 640.0999755859375 647.489990234375 650.29998779296875 652.719970703125 654.030029296875 655.6199951171875 656.71002197265625 658.6500244140625 660.59002685546875 663.3900146484375 666.30999755859375 669.65997314453125 673.5999755859375 678.489990234375 682.72998046875 685.05999755859375 684.08001708984375 684.030029296875 684.67999267578125 685.05999755859375 685.58001708984375 685.780029296875 685.6300048828125 685.030029296875 683.58001708984375 680.57000732421875 676.55999755859375 671.6500244140625 665.719970703125 657.27001953125 649.16998291015625 641.82000732421875 634.79998779296875 628.08001708984375 621.8499755859375 614.75
626.3499755859375 626.16998291015625 625.34002685546875 624.469970703125 623.9000244140625 623.46002197265625 623.33001708984375 622.45001220703125 620.33001708984375 617.57000732421875 614.760009765625 612.25 608.6300048828125 602.92999267578125 603.20001220703125 603.84002685546875 604.719970703125 607.07000732421875 612.780029296875 619.469970703125 626.4000244140625 632.6500244140625 637.75 636.03997802734375 633.67999267578125 631.54998779296875 629.8900146484375 628.80999755859375 627.58001708984375 625.77001953125 624.57000732421875 624.02001953125 622.77001953125 620.469970703125 618.21002197265625  618.5 622.69000244140625 628.79998779296875 632.82000732421875 640.010009765625 648.260009765625 652.03997802734375 654.28997802734375 656.57000732421875 657.8900146484375 658.79998779296875 660.25 661.96002197265625 664.6400146484375 667.78997802734375 671.17999267578125 676.239990234375 682.3599853515625 686.27001953125 686.46002197265625 685.19000244140625 684.84002685546875 685.3599853515625 686.04998779296875 686.719970703125 687.17999267578125 688.09002685546875 687.760009765625 685.90997314453125 680.6400146484375 674.78997802734375 669.04998779296875 662.739990234375 655.239990234375 647.04998779296875 639.45001220703125 633.40997314453125 627.47998046875 621.57000732421875 614.8499755859375
627.54998779296875 628.25 628.1300048828125 628.1300048828125 627.44000244140625 627.22998046875 627.1500244140625 626.3900146484375 624.58001708984375 620.97998046875 617.3699951171875 614.030029296875 608.78997802734375 604.1500244140625 607.030029296875 609.16998291015625 607.3699951171875 607.25 609.33001708984375 614.6099853515625 621.1300048828125 627.29998779296875 633.47998046875 638.20001220703125 638.9000244140625 636.80999755859375 633.29998779296875 631.58001708984375 630.66998291015625 629.03997802734375 627.489990234375 626.59002685546875 625.219970703125 622.91998291015625 620.010009765625 619.030029296875 622.489990234375 627.6400146484375 633.780029296875 639.8599853515625 646.8900146484375 652.33001708984375 655.22998046875 657.77001953125 659.1099853515625 659.6300048828125 660.75 662.96002197265625 665.54998779296875 668.77001953125 672.90997314453125 678.8499755859375 683.4000244140625 685.55999755859375 685.280029296875 684.6199951171875 684.989990234375 685.52001953125 686.469970703125 687.66998291015625 689.30999755859375 690.3900146484375 690.20001220703125 687.09002685546875 680.70001220703125 673.72998046875 667.010009765625 660.59002685546875 653.96002197265625 645.96002197265625 638.67999267578125 632.530029296875 626.53997802734375 619.55999755859375 613.3800048828125
628.530029296875 629.8599853515625 630.82000732421875 630.739990234375 630.6400146484375 630.3900146484375    630 628.9000244140625 626.8900146484375 623.57000732421875 619.9000244140625 615.05999755859375 608.4000244140625 606.20001220703125 612.5999755859375 614.3900146484375 613.34002685546875 611.79998779296875 610.3800048828125 612.239990234375 616.03997802734375 621.0999755859375 626.80999755859375 633.0999755859375 638.08001708984375 639.92999267578125 637.52001953125 635.030029296875 633.9000244140625 632.16998291015625 630.4000244140625 629.1099853515625 627.760009765625 625.469970703125 621.8800048828125 619.8499755859375 622.010009765625 627.17999267578125 633.530029296875 639.19000244140625 644.53997802734375 650.260009765625 654.030029296875 657.16998291015625 659.030029296875 659.55999755859375 660.32000732421875 662.5999755859375 665.34002685546875 668.58001708984375 673.19000244140625 678.41998291015625 682.92999267578125 684.45001220703125 683.8900146484375 683.6199951171875 684.66998291015625 685.83001708984375 686.8499755859375 688.44000244140625 690.80999755859375 692.94000244140625 692.58001708984375 687.15997314453125 680.6300048828125 673.17999267578125 665.760009765625 660.219970703125 653.3900146484375 645.280029296875 637.9000244140625 632.29998779296875 626.32000732421875 620.19000244140625 613.489990234375
629.6500244140625 631.53997802734375 632.78997802734375 633.29998779296875 633.6300048828125    633 632.3599853515625 630.54998779296875 628.32000732421875 625.53997802734375 621.8800048828125 616.030029296875 608.96002197265625 609.40997314453125 616.58001708984375 618.52001953125 618.91998291015625 618.5999755859375 617.510009765625 614.25 614.05999755859375  617.5 621.6400146484375 627.29998779296875 632.780029296875 639.20001220703125 640.6300048828125 638.90997314453125 637.08001708984375 635.54998779296875 633.78997802734375 631.969970703125 630.3599853515625 627.760009765625 624.34002685546875 621.469970703125 621.739990234375 626.95001220703125 633.28997802734375    639 642.90997314453125 647.030029296875 650.25 654.010009765625 656.90997314453125 657.65997314453125 658.91998291015625 661.69000244140625 664.280029296875 667.6400146484375 672.92999267578125 678.1500244140625 682.16998291015625 682.54998779296875 681.70001220703125 681.72998046875 683.5999755859375 685.46002197265625 686.75 688.78997802734375 691.8800048828125 695.030029296875 695.1300048828125 689.77001953125 681.760009765625 673.29998779296875 665.3599853515625 658.83001708984375 651.8900146484375 643.9000244140625 637.469970703125 632.260009765625 627.41998291015625 622.04998779296875 615.8800048828125
630.97998046875 633.30999755859375 634.83001708984375 635.78997802734375 636.260009765625 635.719970703125 634.59002685546875 632.219970703125 629.6300048828125 626.20001220703125 622.1500244140625 616.1500244140625 609.77001953125 613.20001220703125 620.22998046875 623.260009765625 623.8599853515625 623.80999755859375 622.95001220703125 621.66998291015625 619.16998291015625 618.6400146484375 620.05999755859375 623.69000244140625 629.489990234375 636.45001220703125 641.20001220703125 641.28997802734375 640.1099853515625 638.72998046875 636.8800048828125 634.65997314453125 632.92999267578125 630.28997802734375 626.84002685546875 623.530029296875 622.6500244140625 624.8599853515625 632.719970703125 637.8699951171875 640.989990234375 644.33001708984375 646.53997802734375 650.239990234375 653.28997802734375 654.82000732421875 656.75 659.42999267578125 662.70001220703125 665.70001220703125 671.5999755859375 677.05999755859375 679.3900146484375 679.78997802734375 678.6199951171875 679.719970703125 682.22998046875 684.510009765625 686.3599853515625 688.55999755859375 692.15997314453125 696.219970703125 693.6500244140625 689.260009765625 681.79998779296875 674.280029296875 666.739990234375 657.75 650.780029296875 644.3699951171875 638.79998779296875 634.1199951171875 629.4000244140625 623.260009765625 617.41998291015625
632.6300048828125 635.32000732421875 637.1400146484375 638.260009765625 638.94000244140625 638.1400146484375 636.33001708984375 633.8599853515625 630.66998291015625 626.8900146484375 622.40997314453125 616.47998046875 611.6400146484375 617.53997802734375 626.27001953125 631.010009765625 630.40997314453125 628.3499755859375 627.54998779296875 626.469970703125 625.8699951171875 625.25 623.20001220703125 622.91998291015625 627.010009765625 634.05999755859375 641.17999267578125 644.32000732421875 643.34002685546875 641.53997802734375 639.6300048828125 637.46002197265625 635.469970703125 634.1199951171875 629.80999755859375 626.6500244140625 624.21002197265625 624.280029296875 628.6400146484375 635.19000244140625 638.05999755859375 640.72998046875 643.3699951171875 646.8499755859375 649.94000244140625 651.8900146484375 654.510009765625 657.52001953125 660.260009765625 663.33001708984375 669.260009765625 674.53997802734375 676.28997802734375 675.02001953125 674.91998291015625 678.42999267578125 681.45001220703125 683.71002197265625 686.09002685546875 688.1400146484375 691.09002685546875 692.66998291015625 690.969970703125 686.19000244140625 681.82000732421875 675.6300048828125 667.030029296875 658.5999755859375 652.70001220703125 647.989990234375 642.260009765625 637.17999267578125 632.1400146484375 625.91998291015625 619.760009765625
635.02001953125 637.65997314453125 639.4000244140625 641.1199951171875 641.67999267578125 640.40997314453125 638.25 635.40997314453125 631.84002685546875 627.33001708984375 622.780029296875 617.58001708984375 613.42999267578125 620.739990234375 629.530029296875 636.72998046875 637.71002197265625 634.52001953125 632.52001953125 630.78997802734375 630.16998291015625 629.82000732421875 628.69000244140625 623.8900146484375 626.239990234375 632.3699951171875 640.84002685546875 645.69000244140625 645.90997314453125 643.90997314453125 641.91998291015625 639.8599853515625 637.219970703125 635.6400146484375 632.44000244140625 629.22998046875 626.59002685546875 625.239990234375 626.34002685546875 629.95001220703125 634.77001953125 637.53997802734375 640.17999267578125 642.96002197265625 646.760009765625 649.46002197265625 651.94000244140625 655.1400146484375  658.5 661.15997314453125 665.28997802734375 669.80999755859375 670.739990234375 670.34002685546875 672.8900146484375 676.80999755859375 680.27001953125 683.25 685.6500244140625 688.1400146484375    690 690.0999755859375 690.28997802734375 688.03997802734375 683.91998291015625 677.280029296875 669.30999755859375 661.8800048828125 657.20001220703125 652.69000244140625 646.52001953125  640.5 635.69000244140625 630.16998291015625 624.04998779296875
637.90997314453125 640.42999267578125 642.52001953125 644.1199951171875 644.25 643.04998779296875 640.8599853515625 637.6500244140625 634.03997802734375 629.030029296875 624.27001953125 618.469970703125 615.25  621.5 630.84002685546875 638.1300048828125 643.1300048828125 640.82000732421875 637.94000244140625 635.72998046875 633.780029296875 633.75 632.780029296875 628.010009765625 626.8599853515625 631.34002685546875 639.21002197265625 646.21002197265625 648.45001220703125 647.1199951171875 644.66998291015625 642.46002197265625 639.1099853515625 636.96002197265625 635.719970703125 632.03997802734375 629.32000732421875 627.57000732421875 626.78997802734375 627.46002197265625 630.9000244140625 634.70001220703125 637.17999267578125 640.40997314453125 644.08001708984375 647.030029296875 649.70001220703125 652.8599853515625 655.8900146484375    659 662.239990234375 665.41998291015625 666.8499755859375 669.72998046875 674.15997314453125 678.02001953125 680.58001708984375 683.44000244140625 686.40997314453125 689.239990234375 690.1400146484375 690.96002197265625    690    690 684.97998046875 679.72998046875 673.8900146484375 669.1400146484375 664.4000244140625 658.030029296875 651.02001953125 644.6300048828125 639.08001708984375 634.15997314453125 629.40997314453125
640.83001708984375 643.52001953125 646.03997802734375 647.5999755859375 646.9000244140625 646.1199951171875 643.42999267578125 640.66998291015625 637.1400146484375 631.78997802734375 626.22998046875 621.05999755859375 616.3800048828125 619.84002685546875 629.489990234375 636.3699951171875 641.80999755859375 644.28997802734375 641.3599853515625 639.33001708984375 637.77001953125 637.260009765625 636.1099853515625 632.739990234375 628.1099853515625 630.65997314453125 636.8599853515625 645.1099853515625 648.22998046875 649.6400146484375 647.40997314453125 645.29998779296875 641.8699951171875 639.8499755859375 637.46002197265625 633.96002197265625 632.010009765625 630.95001220703125 629.82000732421875 628.8499755859375 630.17999267578125 632.59002685546875 635.16998291015625 638.34002685546875 641.65997314453125 644.55999755859375 646.97998046875 650.72998046875 653.71002197265625 657.75 661.80999755859375 665.45001220703125 669.46002197265625 673.67999267578125 677.260009765625 680.53997802734375 683.15997314453125 685.33001708984375 688.20001220703125 690.30999755859375 691.82000732421875 692.82000732421875 692.25 690.280029296875 687.91998291015625 683.70001220703125 679.69000244140625 676.219970703125 671.78997802734375 663.59002685546875 655.010009765625 648.20001220703125 642.5999755859375 638.3599853515625 633.8499755859375
644.3699951171875 646.91998291015625 649.530029296875 650.30999755859375 649.9000244140625 648.1099853515625 645.9000244140625 643.29998779296875 640.1400146484375 634.6400146484375 629.52001953125 624.780029296875 618.97998046875 619.1199951171875 625.25 630.969970703125 637.77001953125 642.28997802734375 642.96002197265625 641.41998291015625 641.04998779296875 640.6500244140625 639.15997314453125 636.3599853515625 632.09002685546875 630.16998291015625 634.4000244140625 640.29998779296875 645.77001953125 648.989990234375 649.25 646.8699951171875 644.34002685546875 641.92999267578125 639.469970703125 636.6099853515625 634.84002685546875 633.67999267578125 633.1199951171875 631.719970703125 630.1500244140625 631.40997314453125 634.030029296875 636.79998779296875 639.91998291015625 642.65997314453125 645.94000244140625 649.719970703125 654.22998046875 658.3800048828125 663.47998046875 668.28997802734375 671.8800048828125 676.530029296875 680.1500244140625 683.4000244140625 686.28997802734375 688.239990234375 690.280029296875 691.739990234375 693.28997802734375 694.33001708984375 694.6500244140625 694.09002685546875 692.32000732421875 689.05999755859375 686.1199951171875 683.239990234375 676.34002685546875 665.780029296875 657.21002197265625 651.3800048828125 646.94000244140625 641.239990234375 636.90997314453125
647.54998779296875 649.6199951171875 651.33001708984375 652.719970703125 652.44000244140625 650.469970703125 648.469970703125 646.03997802734375 643.20001220703125 638.17999267578125 633.30999755859375 628.239990234375 624.15997314453125 621.16998291015625 622.1199951171875 627.780029296875 633.57000732421875 638.3900146484375 641.16998291015625  642.5 643.239990234375 643.239990234375 641.97998046875  639.5 636.09002685546875 632.22998046875 632.78997802734375 637.04998779296875 641.92999267578125 647.3800048828125 650.19000244140625  648.5 646.41998291015625 644.19000244140625 641.78997802734375 639.41998291015625 638.010009765625 636.83001708984375 636.02001953125 633.97998046875 632.6400146484375 633.29998779296875 634.280029296875 636.760009765625 639.41998291015625 643.239990234375 646.6099853515625 650.25 654.52001953125  658.5 664.05999755859375 669.16998291015625 673.9000244140625 679.69000244140625 684.760009765625 687.53997802734375 689.780029296875 691.42999267578125 692.78997802734375 694.1099853515625 695.70001220703125 697.17999267578125 697.96002197265625 698.59002685546875 697.80999755859375 696.67999267578125 695.28997802734375 691.3499755859375 679.96002197265625 667.75 659.33001708984375 654.70001220703125 649.719970703125 645.21002197265625 640.19000244140625
649.77001953125 651.719970703125 653.71002197265625 655.05999755859375 655.44000244140625 654.19000244140625 651.96002197265625 649.469970703125 646.97998046875 642.3900146484375 637.4000244140625 632.6400146484375 628.52001953125 624.58001708984375 622.1199951171875 626.4000244140625 631.40997314453125 635.69000244140625 639.58001708984375 642.28997802734375 644.57000732421875 645.83001708984375 644.780029296875 642.59002685546875 640.09002685546875 636.3599853515625 633.59002685546875 635.08001708984375 639.030029296875 643.53997802734375 649.65997314453125 649.52001953125 647.8900146484375 646.07000732421875 644.09002685546875 642.33001708984375 640.78997802734375 639.469970703125 638.719970703125 636.530029296875 635.75 635.79998779296875 635.69000244140625 636.8499755859375 640.260009765625 643.59002685546875 647.05999755859375 650.8900146484375 654.969970703125 659.1300048828125 664.030029296875 669.54998779296875 676.47998046875 685.0999755859375 691.72998046875 693.6500244140625 694.3699951171875 694.8599853515625 695.92999267578125 697.25 699.02001953125 700.5999755859375 702.219970703125 703.6500244140625 704.41998291015625 704.530029296875    703 697.75 685.489990234375 673.80999755859375 664.95001220703125 658.29998779296875 653.03997802734375 648.15997314453125 644.47998046875
651.92999267578125 654.1199951171875 655.8699951171875 657.08001708984375 657.3499755859375    657 654.780029296875 652.5999755859375 650.1500244140625 645.95001220703125 640.719970703125 636.27001953125 631.83001708984375    628 624.21002197265625 625.67999267578125 630.83001708984375 635.19000244140625 639.02001953125 642.16998291015625 645.16998291015625 647.59002685546875 647.9000244140625 645.530029296875 643.54998779296875 640.83001708984375 637.3800048828125 635.510009765625 637.6300048828125 640.28997802734375 645.010009765625 648.84002685546875 648.6199951171875 647.4000244140625 645.90997314453125 644.719970703125 643.489990234375 642.04998779296875 640.41998291015625 638.6199951171875 638.84002685546875 638.4000244140625 637.8699951171875 638.1500244140625 640.17999267578125 643.5999755859375 647.29998779296875 650.94000244140625 655.08001708984375 659.08001708984375 663.8499755859375 669.75 679.9000244140625 689.8599853515625 696.8699951171875  697.5 697.03997802734375 697.46002197265625 698.530029296875 700.25 702.3800048828125 704.34002685546875 706.5999755859375 709.66998291015625 710.41998291015625 710.530029296875 707.46002197265625 702.16998291015625 692.82000732421875 681.42999267578125 670.69000244140625 661.8800048828125 656.260009765625 652.08001708984375 647.780029296875
655.08001708984375 656.82000732421875 658.32000732421875 659.72998046875 659.94000244140625 659.469970703125 658.02001953125 655.530029296875 652.77001953125 649.1300048828125 644.489990234375 639.42999267578125 635.1500244140625 630.92999267578125 626.96002197265625 626.16998291015625 630.469970703125 635.07000732421875 638.989990234375 642.55999755859375 645.3599853515625 648.09002685546875 649.77001953125 648.6400146484375 646.97998046875 645.010009765625 642.46002197265625 639.510009765625 638.239990234375 639.010009765625 641.6500244140625 645.3599853515625 648.08001708984375 648.44000244140625 647.739990234375 646.8699951171875 645.95001220703125 644.29998779296875 642.03997802734375 640.719970703125 641.77001953125 641.09002685546875 640.22998046875 640.3800048828125 640.530029296875 643.53997802734375 647.52001953125 651.07000732421875 654.82000732421875 658.79998779296875 662.58001708984375 668.8699951171875 678.1500244140625 687.55999755859375 694.75 697.1400146484375 697.58001708984375 698.6300048828125 700.59002685546875    703 705.46002197265625 707.9000244140625 711.33001708984375 714.25 715.780029296875 715.04998779296875 710.91998291015625 705.15997314453125 696.77001953125 686.91998291015625 676.54998779296875 668.469970703125 662.219970703125 656.8499755859375 652.1500244140625
658 659.05999755859375 660.47998046875 662.030029296875 662.6199951171875 661.8699951171875 660.29998779296875 657.95001220703125 655.1099853515625 651.58001708984375 647.8699951171875 643.010009765625 638.02001953125 633.92999267578125 629.8499755859375 627.09002685546875 632.6300048828125 637.1199951171875 640.030029296875 643.1300048828125 645.96002197265625 648.53997802734375 650.719970703125 650.96002197265625 650.27001953125 649.19000244140625 647.1500244140625 644.67999267578125 642.280029296875 640.9000244140625 640.84002685546875 643.09002685546875 646.4000244140625 648.8800048828125 649.42999267578125 648.989990234375 648.1199951171875 646.53997802734375 644.1099853515625 643.6400146484375  644.5 644.1300048828125 643.46002197265625 642.52001953125 642.719970703125 643.82000732421875 647.469970703125 650.989990234375 654.27001953125 658.010009765625 662.07000732421875 667.15997314453125 674.82000732421875 684.42999267578125 690.95001220703125 693.90997314453125 696.09002685546875 698.4000244140625 701.44000244140625 704.84002685546875 708.32000732421875 711.42999267578125 715.19000244140625 718.02001953125 719.6400146484375 717.90997314453125 713.030029296875 706.489990234375 698.489990234375 690.83001708984375 683.3800048828125 675.97998046875 667.6199951171875 660.260009765625 654.280029296875
660.46002197265625 661.47998046875 662.77001953125 663.75 664.59002685546875 664.510009765625 662.780029296875 660.78997802734375 657.8599853515625 654.1099853515625 650.469970703125 645.760009765625 640.21002197265625 635.92999267578125 632.29998779296875 628.3599853515625 633.94000244140625 639.6199951171875  642.5 644.6300048828125 646.91998291015625 649.55999755859375 651.67999267578125 652.75 652.97998046875 652.57000732421875 651.30999755859375 649.15997314453125 646.58001708984375 644.67999267578125 643.280029296875 642.8499755859375 645.15997314453125 648.52001953125 650.780029296875 651.05999755859375 650.25 648.84002685546875 647.5999755859375 646.739990234375 647.94000244140625 648.55999755859375 647.530029296875 646.1300048828125 645.8599853515625 645.65997314453125 646.989990234375 650.25 653.489990234375 657.3599853515625 661.33001708984375 665.83001708984375 671.17999267578125 678.84002685546875 686.3599853515625 690.3599853515625 693.30999755859375 696.95001220703125 700.719970703125 704.78997802734375 710.08001708984375 714.1199951171875 717.90997314453125 720.75 720.82000732421875 717.25 712.6400146484375 706.219970703125 700.20001220703125 694.94000244140625 689.239990234375 682.54998779296875 671.83001708984375 660.58001708984375 654.1500244140625
663.02001953125 663.66998291015625 664.8599853515625 666.07000732421875 666.739990234375 667.1199951171875 665.75 663.54998779296875 660.69000244140625 657.239990234375 652.530029296875 648.07000732421875 642.84002685546875 638.09002685546875 634.30999755859375 630.16998291015625 635.59002685546875 640.95001220703125 644.260009765625 646.22998046875 648.07000732421875 650.41998291015625 652.72998046875 654.4000244140625 655.1300048828125 655.260009765625 655.04998779296875 653.69000244140625 650.54998779296875    648 646.5999755859375 645.07000732421875 644.95001220703125 647.52001953125 651.28997802734375 652.8900146484375 652.28997802734375 651.030029296875 648.83001708984375 649.8800048828125 651.05999755859375 652.09002685546875 651.96002197265625 651.03997802734375 650.08001708984375 649.3699951171875 648.3699951171875 649.83001708984375 652.45001220703125 656.55999755859375 660.260009765625 664.71002197265625 668.91998291015625 674.69000244140625 681.34002685546875 686.55999755859375 690.3900146484375 695.22998046875 699.34002685546875 703.8699951171875 709.8599853515625 715.79998779296875 720.34002685546875 721.3900146484375 719.30999755859375 714.6400146484375 710.65997314453125 705.22998046875 700.739990234375 696.65997314453125    692 686.469970703125 671.65997314453125 661.71002197265625 653.47998046875
664.55999755859375 666.010009765625 666.8599853515625 667.55999755859375 668.58001708984375 669.010009765625 668.280029296875 666.44000244140625 663.78997802734375 660.05999755859375 655.530029296875 649.97998046875 644.67999267578125 640.1199951171875 636.22998046875 632.219970703125 635.96002197265625 641.59002685546875 645.280029296875 647.71002197265625 649.65997314453125 651.72998046875 654.010009765625 655.84002685546875 657.1500244140625 657.90997314453125 657.6099853515625 656.52001953125 654.1300048828125 651.40997314453125 649.8699951171875 648.09002685546875 646.54998779296875 647.29998779296875 650.95001220703125 654.219970703125 654.010009765625 652.95001220703125 651.489990234375 652.1199951171875 653.91998291015625 655.22998046875 655.5999755859375 654.71002197265625 654.1099853515625 653.719970703125 652.15997314453125 651.280029296875 652.1400146484375 655.42999267578125 659.30999755859375 663.44000244140625 667.6099853515625 672.1099853515625 677.4000244140625 682.79998779296875 688.28997802734375 693.1400146484375 698.16998291015625 702.6300048828125 708.59002685546875 716.9000244140625 720.40997314453125 719.3699951171875 716.30999755859375 712.21002197265625 708.28997802734375 703.55999755859375 699.92999267578125 696.30999755859375 692.6300048828125 684.719970703125 672.17999267578125 663.96002197265625 655.47998046875
666.1300048828125 666.780029296875 667.70001220703125 668.58001708984375 669.34002685546875 670.05999755859375 670.20001220703125 669.07000732421875 666.52001953125 663.219970703125 658.42999267578125 652.33001708984375 646.94000244140625 641.8900146484375 637.8599853515625 633.530029296875 635.42999267578125 641.0999755859375 645.34002685546875 648.65997314453125 650.83001708984375 652.65997314453125 655.1300048828125 657.05999755859375 658.8699951171875 660.1099853515625 660.1500244140625 658.8900146484375 656.9000244140625 654.66998291015625 653.219970703125 651.57000732421875 649.3900146484375 648.25 650.70001220703125 654.1400146484375 655.3900146484375 655.16998291015625 654.489990234375 655.03997802734375 656.72998046875 657.25 658.719970703125 658.83001708984375 658.69000244140625 658.34002685546875 657.27001953125 655.9000244140625 654.739990234375 655.29998779296875 658.3499755859375 662.260009765625 666.30999755859375 670.57000732421875 675.30999755859375 680.53997802734375 686.53997802734375 691.45001220703125 696.66998291015625 701.719970703125 709.28997802734375 716.6199951171875 719.52001953125 717.75 714.59002685546875 709.95001220703125 705.82000732421875 701.69000244140625 698.20001220703125 694.219970703125 688.77001953125    682 674.02001953125 664.75 656.20001220703125
666.6099853515625 667.32000732421875 667.8599853515625 668.489990234375 669.41998291015625 669.969970703125 670.58001708984375  670.5 668.80999755859375  665.5 661.3499755859375 655.44000244140625 649.94000244140625 643.40997314453125    640 636.219970703125 635.75 640.32000732421875 644.71002197265625 648.75 651.489990234375 653.67999267578125 656.1300048828125 658.21002197265625 660.219970703125 661.72998046875 662.25 661.66998291015625 660.04998779296875 657.97998046875 656.46002197265625 654.8699951171875 652.3900146484375 650.030029296875 650.260009765625 653.54998779296875 655.66998291015625 656.94000244140625 657.1099853515625 658.03997802734375 660.04998779296875 661.469970703125 661.8499755859375 662.6099853515625 663.07000732421875 663.1400146484375 662.41998291015625 660.8900146484375 658.54998779296875 658.510009765625 658.69000244140625 661.8599853515625 665.280029296875 669.3800048828125 674.1500244140625 678.8800048828125 684.78997802734375 690.34002685546875 695.6099853515625 701.4000244140625 709.84002685546875 715.78997802734375 717.739990234375 716.5999755859375 712.52001953125 708.04998779296875 703.67999267578125 699.4000244140625 695.69000244140625 691.20001220703125 686.27001953125 680.28997802734375 672.84002685546875 664.21002197265625 655.9000244140625
665.80999755859375 666.17999267578125 666.71002197265625 667.25 667.92999267578125 668.55999755859375 669.67999267578125 670.45001220703125 669.55999755859375 667.3599853515625 664.030029296875 659.19000244140625 654.0999755859375 647.3599853515625 642.6199951171875 639.33001708984375 636.9000244140625 639.46002197265625 643.8699951171875 648.09002685546875 651.469970703125 654.3800048828125 657.44000244140625 659.55999755859375  661.5 663.46002197265625 664.04998779296875 663.42999267578125 662.75 661.260009765625 659.29998779296875 657.3599853515625 655.1300048828125 652.719970703125 651.239990234375 653.1199951171875 655.8800048828125 658.17999267578125 659.57000732421875 661.08001708984375 662.8499755859375 664.21002197265625 665.27001953125 666.3599853515625 667.54998779296875 667.32000732421875 666.969970703125 665.510009765625  663.5 663.0999755859375 662.46002197265625 662.46002197265625 665.32000732421875 669.03997802734375 673.92999267578125 678.28997802734375 683.59002685546875 689.5999755859375 694.77001953125 701.59002685546875 708.8499755859375 713.27001953125 714.8800048828125 714.03997802734375 709.510009765625 705.94000244140625 701.3800048828125 696.72998046875 693.010009765625 688.55999755859375    684 678.3599853515625 671.4000244140625 663.96002197265625 655.30999755859375
663.54998779296875 663.6199951171875 664.19000244140625 665.260009765625 665.80999755859375 666.47998046875 667.40997314453125 669.32000732421875 669.989990234375 668.469970703125 665.8699951171875 661.8800048828125 657.28997802734375 650.469970703125 645.6500244140625 642.17999267578125 640.55999755859375 641.41998291015625 642.52001953125 646.44000244140625 650.8599853515625 654.530029296875 658.0999755859375 660.70001220703125 663.260009765625 664.67999267578125 665.71002197265625 665.45001220703125    665 663.77001953125 661.969970703125 659.8599853515625 657.55999755859375 655.6400146484375 653.3499755859375 654.05999755859375 656.67999267578125  659.5 661.1500244140625 663.15997314453125 664.97998046875 666.53997802734375 668.66998291015625 669.70001220703125 671.219970703125 671.28997802734375 671.030029296875 670.07000732421875 668.29998779296875 668.010009765625 667.69000244140625 666.780029296875 667.1099853515625 669.65997314453125 673.97998046875 678.719970703125 683.260009765625 688.57000732421875 694.510009765625 700.6400146484375 706.52001953125 710.08001708984375 711.58001708984375 710.77001953125 706.77001953125 703.04998779296875 699.030029296875 694.82000732421875 691.44000244140625 687.71002197265625 683.15997314453125 678.34002685546875 671.71002197265625 662.44000244140625    654
658.739990234375 659.6500244140625 660.6199951171875 662.27001953125 663.25 664.59002685546875 665.92999267578125 667.3900146484375 668.96002197265625 669.530029296875 667.530029296875 664.75 659.989990234375 654.77001953125 649.6400146484375 645.78997802734375 644.41998291015625 645.59002685546875 644.6199951171875 646.92999267578125 651.71002197265625 655.739990234375 659.1400146484375 662.1099853515625 664.70001220703125 666.28997802734375 667.3900146484375 667.69000244140625 666.780029296875 665.83001708984375 664.16998291015625 662.239990234375 659.96002197265625 657.6500244140625 655.17999267578125 655.3699951171875 657.97998046875 660.6500244140625 662.66998291015625 664.760009765625 667.30999755859375 669.03997802734375 671.28997802734375 672.77001953125 674.20001220703125 674.71002197265625 674.33001708984375 674.16998291015625 673.510009765625 672.90997314453125 672.54998779296875 671.760009765625 672.15997314453125  673.5 675.45001220703125 678.90997314453125 683.52001953125 688.3699951171875 693.5999755859375 698.41998291015625 703.16998291015625 705.8599853515625 707.6500244140625 706.66998291015625 703.80999755859375 701.010009765625 697.46002197265625 694.25  691.5 687.92999267578125 684.08001708984375 679.65997314453125 672.02001953125 661.30999755859375 653.6400146484375
653.75 655.78997802734375 657.30999755859375 658.8900146484375 660.530029296875 662.3499755859375 664.469970703125 665.91998291015625 668.1300048828125 669.66998291015625 668.8900146484375 667.02001953125 664.08001708984375 658.75 654.239990234375 650.3599853515625 650.17999267578125 650.3800048828125 649.3699951171875 648.3499755859375 653.47998046875 657.54998779296875 661.09002685546875 664.09002685546875 666.469970703125 668.52001953125 669.719970703125 669.8599853515625 668.95001220703125 667.3900146484375 666.0999755859375 664.1400146484375 661.69000244140625 659.3800048828125 656.6500244140625 656.91998291015625 659.47998046875 662.17999267578125 664.21002197265625 666.719970703125 669.41998291015625 671.1400146484375 673.29998779296875 675.1099853515625 676.83001708984375 677.55999755859375 677.58001708984375 677.510009765625 677.19000244140625 677.27001953125    677 676.3699951171875 676.6099853515625 677.510009765625 679.0999755859375 681.70001220703125 684.69000244140625 688.41998291015625 692.47998046875 696.47998046875 699.53997802734375 701.8599853515625 703.25 703.030029296875 700.96002197265625 699.03997802734375 696.0999755859375 693.80999755859375 691.25 688.1099853515625 684.989990234375 681.27001953125 673.94000244140625 661.3900146484375 651.3900146484375
649.6199951171875 651.95001220703125 653.66998291015625 655.77001953125 658.219970703125 660.5999755859375 663.02001953125 665.09002685546875 667.29998779296875 669.3800048828125 670.46002197265625 669.17999267578125 667.41998291015625 663.8499755859375 659.52001953125 655.8599853515625 655.91998291015625 655.3599853515625 654.20001220703125 652.70001220703125 655.22998046875 659.66998291015625 663.28997802734375 666.30999755859375 668.760009765625 670.84002685546875 671.80999755859375 671.780029296875 670.6300048828125 668.989990234375 667.239990234375 665.489990234375 663.030029296875 660.57000732421875 658.09002685546875 658.6199951171875 661.3800048828125 663.739990234375 665.8499755859375 668.71002197265625 671.280029296875 672.82000732421875 675.010009765625 677.1500244140625 678.8499755859375 679.84002685546875 680.3800048828125 680.75 680.71002197265625 680.40997314453125 680.4000244140625 680.0999755859375 680.72998046875 681.57000732421875 682.90997314453125 684.95001220703125 686.739990234375 689.469970703125 692.42999267578125 695.1099853515625 697.77001953125 699.260009765625 700.1500244140625 699.82000732421875 698.32000732421875 696.780029296875 694.6300048828125 693.16998291015625 690.53997802734375 687.34002685546875 684.66998291015625 681.9000244140625 675.33001708984375 661.92999267578125 651.30999755859375
645.53997802734375 648.19000244140625 650.54998779296875 652.92999267578125 656.219970703125 659.15997314453125 662.469970703125 664.6500244140625 667.03997802734375 669.1099853515625 670.6500244140625 671.260009765625 669.739990234375 667.780029296875 664.8699951171875 663.09002685546875 662.1099853515625 660.82000732421875 659.17999267578125 657.6300048828125 658.8900146484375 662.75 666.0999755859375 669.03997802734375 671.09002685546875 672.969970703125 673.95001220703125 673.58001708984375 672.66998291015625 670.8699951171875 668.33001708984375 666.239990234375 664.25 661.96002197265625 659.8499755859375 660.79998779296875 663.4000244140625 665.280029296875 667.41998291015625 669.79998779296875 672.3800048828125 674.66998291015625 677.1500244140625 679.27001953125 681.19000244140625 682.05999755859375 682.530029296875 683.07000732421875 683.21002197265625 683.260009765625 683.239990234375 683.29998779296875 683.79998779296875 684.469970703125 685.4000244140625 686.8800048828125 688.34002685546875 690.69000244140625 693.09002685546875 695.1500244140625 696.84002685546875 697.75 698.09002685546875 697.70001220703125 696.3599853515625 694.55999755859375 692.8599853515625 691.15997314453125 688.34002685546875 685.54998779296875 683.45001220703125 682.1099853515625 673.21002197265625 661.25 650.8599853515625
641.84002685546875 644.6300048828125 648.32000732421875 653.19000244140625 657.010009765625 659.79998779296875 662.510009765625 664.65997314453125 666.95001220703125 669.08001708984375 670.67999267578125 671.70001220703125 671.6099853515625 670.1400146484375 668.78997802734375 667.54998779296875 666.469970703125 665.530029296875 664.44000244140625 663.55999755859375 663.95001220703125 666.29998779296875 669.33001708984375 671.9000244140625 673.54998779296875 675.3599853515625 675.969970703125 675.760009765625 674.780029296875 673.15997314453125 670.3900146484375 667.30999755859375 665.219970703125 662.9000244140625 661.0999755859375 662.530029296875 664.79998779296875 666.6099853515625 668.65997314453125 670.67999267578125 673.70001220703125 676.71002197265625 679.1199951171875 681.28997802734375 682.97998046875 683.79998779296875 684.260009765625 684.70001220703125 684.8800048828125 685.22998046875 685.29998779296875 685.29998779296875 685.82000732421875 686.21002197265625 686.71002197265625 687.739990234375  689.5 691.45001220703125 693.94000244140625 695.739990234375 696.8800048828125 697.27001953125 696.83001708984375 695.84002685546875 694.3900146484375 692.44000244140625 690.27001953125 687.82000732421875 685.40997314453125    683 681.3499755859375 678.91998291015625 671.239990234375 660.72998046875 650.94000244140625
642.52001953125 646.34002685546875 650.47998046875 654.72998046875 657.79998779296875 660.3900146484375 662.69000244140625 664.84002685546875 666.71002197265625 668.6500244140625 670.30999755859375 671.3699951171875 671.530029296875 671.04998779296875 670.54998779296875 669.82000732421875 669.28997802734375 668.92999267578125 668.44000244140625 668.3599853515625 668.8800048828125 670.219970703125 672.3800048828125 674.84002685546875 676.77001953125 677.94000244140625 678.6099853515625 678.58001708984375 676.9000244140625 675.07000732421875 672.1300048828125 668.28997802734375 665.75 663.78997802734375 662.16998291015625 663.92999267578125 665.969970703125 667.91998291015625 670.0999755859375 672.4000244140625 675.29998779296875 678.510009765625 681.07000732421875 682.6500244140625 684.41998291015625 685.1500244140625 685.44000244140625 685.6400146484375 686.1400146484375 686.92999267578125 686.83001708984375 686.45001220703125 686.57000732421875 686.8800048828125 687.1199951171875 688.04998779296875 689.8699951171875 691.90997314453125 694.530029296875  696.5 696.79998779296875 696.95001220703125 696.32000732421875 694.77001953125 692.82000732421875 690.47998046875 687.6300048828125 684.510009765625 682.1199951171875 680.20001220703125 677.8499755859375 675.22998046875    671 660.90997314453125 652.08001708984375
644.40997314453125 647.9000244140625 651.8699951171875 655.53997802734375 658.489990234375 661.030029296875 663.08001708984375 664.75 666.21002197265625 668.02001953125 669.20001220703125 669.9000244140625 670.21002197265625 669.80999755859375 669.8699951171875 670.57000732421875 670.6099853515625 670.78997802734375 670.67999267578125 671.30999755859375 672.30999755859375  673.5 675.46002197265625 677.3900146484375 678.91998291015625 679.989990234375 680.59002685546875 680.260009765625 678.40997314453125 676.6099853515625 673.57000732421875 669.55999755859375 666.66998291015625 664.760009765625 664.20001220703125 665.25 667.20001220703125 669.33001708984375 671.22998046875 673.41998291015625 676.28997802734375 679.780029296875 682.22998046875 683.54998779296875 684.94000244140625 685.65997314453125 685.8800048828125 686.45001220703125 687.1099853515625 687.28997802734375 687.3599853515625 686.6099853515625 686.1500244140625 686.239990234375 686.53997802734375 687.260009765625 688.96002197265625 691.8699951171875 694.67999267578125 696.510009765625 697.21002197265625 696.57000732421875 695.25 693.4000244140625 691.280029296875 688.91998291015625  685.5 681.66998291015625 678.95001220703125 677.0999755859375 674.91998291015625 672.4000244140625 669.34002685546875 662.15997314453125 654.20001220703125
644.71002197265625 648.90997314453125 652.94000244140625 656.34002685546875 659.20001220703125 661.08001708984375 662.489990234375 663.59002685546875 664.97998046875 666.32000732421875 666.90997314453125 667.57000732421875 667.58001708984375 668.05999755859375 668.1400146484375 668.47998046875 669.79998779296875 671.40997314453125 672.8499755859375 673.82000732421875 675.46002197265625 676.67999267578125 678.16998291015625 679.719970703125 680.94000244140625 682.1099853515625 682.30999755859375 681.70001220703125 680.32000732421875 678.1099853515625 674.17999267578125 670.530029296875 667.75 666.33001708984375 666.3900146484375 667.29998779296875 668.6400146484375 670.53997802734375 672.33001708984375 674.65997314453125 677.239990234375 680.40997314453125 682.71002197265625 683.94000244140625 684.69000244140625 684.8699951171875 684.65997314453125 684.780029296875 685.79998779296875 686.58001708984375 686.32000732421875 685.0999755859375 684.19000244140625 683.780029296875 684.28997802734375    686 687.77001953125 690.72998046875 693.77001953125 695.54998779296875  696.5 695.71002197265625 694.219970703125 692.22998046875 689.95001220703125 687.4000244140625 683.8800048828125 680.1199951171875 677.22998046875 674.95001220703125 673.0999755859375 670.3599853515625 666.55999755859375 661.0999755859375 655.91998291015625
645.239990234375 649.219970703125 652.71002197265625 656.29998779296875 658.59002685546875 660.280029296875 661.010009765625 661.83001708984375 662.489990234375 663.52001953125 663.80999755859375 664.1099853515625 663.92999267578125 664.6099853515625 665.280029296875 666.239990234375 668.09002685546875 670.71002197265625 672.78997802734375 675.44000244140625 677.739990234375 679.1199951171875 680.15997314453125 681.77001953125 682.969970703125 683.6300048828125 684.1199951171875 683.30999755859375 681.8699951171875 678.8599853515625 675.46002197265625 671.90997314453125 669.17999267578125 668.03997802734375 668.90997314453125 669.52001953125 670.44000244140625 671.760009765625 673.42999267578125 675.27001953125 677.719970703125 680.16998291015625 682.90997314453125 683.25 682.8499755859375 682.4000244140625 681.72998046875 681.91998291015625 683.07000732421875 683.91998291015625 683.3499755859375 682.19000244140625 681.010009765625 680.0999755859375 680.46002197265625 682.71002197265625 685.80999755859375 688.66998291015625 692.07000732421875 694.25 695.1199951171875 694.1500244140625 692.510009765625 690.47998046875 688.55999755859375 686.17999267578125 683.03997802734375 679.67999267578125 676.530029296875 674.66998291015625 672.03997802734375 668.46002197265625 664.28997802734375 660.71002197265625 657.030029296875
644.40997314453125 649.260009765625 652.84002685546875 655.780029296875 657.3599853515625 657.9000244140625 657.8800048828125 658.6199951171875 659.530029296875 660.3499755859375 659.72998046875 659.530029296875    659 659.77001953125 660.8800048828125 663.95001220703125 666.8699951171875 669.15997314453125 671.92999267578125 674.6199951171875 678.47998046875 681.30999755859375 681.969970703125 683.15997314453125 684.42999267578125 685.1099853515625 685.28997802734375 684.219970703125 682.739990234375 680.1400146484375 676.32000732421875 673.02001953125 671.57000732421875 670.78997802734375 670.80999755859375 671.57000732421875 672.19000244140625 673.1199951171875 674.59002685546875 676.280029296875 678.3699951171875 680.42999267578125 682.44000244140625 682.57000732421875 680.42999267578125 678.20001220703125 677.02001953125 677.92999267578125 679.77001953125 680.52001953125 679.80999755859375 678.760009765625 677.3800048828125 675.59002685546875 675.69000244140625 679.3800048828125 682.969970703125 686.27001953125 689.6400146484375 692.04998779296875 692.780029296875 692.03997802734375 690.510009765625 688.83001708984375 686.6500244140625 684.780029296875 682.32000732421875 679.16998291015625 676.1300048828125 674.3699951171875 671.989990234375 668.34002685546875 664.77001953125 661.34002685546875 656.53997802734375
644.219970703125 648.25 650.42999267578125 652.82000732421875 653.6099853515625 653.19000244140625 653.67999267578125 654.6199951171875 656.20001220703125 655.77001953125 654.67999267578125 654.66998291015625 654.92999267578125 655.53997802734375 657.1099853515625 661.53997802734375 664.94000244140625 668.1199951171875 670.75 674.1099853515625 677.66998291015625 680.58001708984375 682.70001220703125 684.530029296875 686.030029296875 686.78997802734375 686.719970703125 685.46002197265625 683.65997314453125 680.58001708984375 677.3599853515625 675.17999267578125 674.02001953125 673.6300048828125 673.3599853515625 673.54998779296875 673.69000244140625 674.28997802734375 675.44000244140625 677.19000244140625 679.260009765625 682.1400146484375 683.77001953125 681.84002685546875 677.8800048828125 672.70001220703125 670.6099853515625 672.489990234375 675.1500244140625 676.5999755859375 676.16998291015625 675.19000244140625 673.77001953125  670.5 671.91998291015625 676.29998779296875 679.83001708984375 683.75 687.280029296875 688.969970703125 690.03997802734375 689.5999755859375 688.82000732421875 687.010009765625 685.22998046875 683.08001708984375 681.04998779296875  678.5 675.8499755859375 673.9000244140625 671.71002197265625 668.44000244140625 665.469970703125 663.219970703125 662.280029296875
641.260009765625 644.44000244140625 645.27001953125 647.09002685546875 647.8699951171875 647.3599853515625 647.3900146484375 647.780029296875 648.91998291015625 648.80999755859375 648.780029296875 648.96002197265625 649.45001220703125 649.6500244140625 655.0999755859375 658.79998779296875 663.010009765625 666.57000732421875  669.5 673.219970703125 676.19000244140625 679.260009765625 682.21002197265625 685.1400146484375 687.33001708984375 687.719970703125 687.30999755859375 685.739990234375 683.22998046875 680.57000732421875 678.77001953125 677.46002197265625 676.42999267578125 675.65997314453125 675.21002197265625 674.9000244140625    675    676 676.09002685546875 677.25 680.52001953125 684.280029296875 685.1300048828125 681.6400146484375 676.4000244140625 668.72998046875 663.21002197265625 665.47998046875 669.719970703125 671.44000244140625 671.80999755859375 670.780029296875 669.57000732421875 666.0999755859375 667.969970703125 673.02001953125 677.28997802734375 681.030029296875 684.239990234375 686.239990234375 687.6099853515625 687.9000244140625 687.52001953125 686.02001953125 683.84002685546875 682.19000244140625 680.15997314453125 677.80999755859375 675.70001220703125 673.96002197265625    672 669.90997314453125 668.47998046875 667.46002197265625 666.16998291015625
636.79998779296875 639.02001953125 638.69000244140625 639.44000244140625 640.08001708984375 639.59002685546875 639.3499755859375 639.79998779296875 640.3699951171875 641.280029296875 642.4000244140625 643.40997314453125 644.0999755859375 647.67999267578125 653.0999755859375 657.02001953125 660.92999267578125 664.1500244140625 668.16998291015625 671.20001220703125 674.1400146484375 677.67999267578125 681.45001220703125 685.21002197265625 687.97998046875 687.6400146484375 686.719970703125 684.8499755859375 683.469970703125 681.28997802734375 679.84002685546875 678.65997314453125 677.280029296875 676.77001953125  676.5 676.260009765625 675.59002685546875 674.41998291015625 674.030029296875 675.8599853515625 679.57000732421875 682.77001953125 682.84002685546875 679.27001953125 673.58001708984375 664.53997802734375 656.3699951171875 657.70001220703125 664.33001708984375 666.1199951171875 666.469970703125 666.20001220703125 664.3699951171875 660.92999267578125 664.82000732421875 668.989990234375 673.96002197265625 677.6300048828125 680.83001708984375 683.16998291015625 684.92999267578125 686.1400146484375 686.0999755859375 684.96002197265625 683.34002685546875 681.8800048828125 680.1199951171875 678.530029296875 676.8699951171875 675.25 672.97998046875 672.52001953125 672.03997802734375 670.67999267578125 669.54998779296875
